481.96,499.92,537.57,536.33,573.03,545.00,545.00,616.84,610.81,601.69,639.72,662.05,662.08,659.42,679.42,708.23,720.48,754.74,738.86,738.87,823.32,788.77,815.31,822.26,828.58,833.15,794.30,841.60,881.75,832.89,900.60,924.09,939.03,945.62,963.91,987.74,988.23,980.72,984.38,999.46,1001.57,1039.16,1037.82,1028.16,1071.52,1048.32,1044.24,1071.83,1064.35,1108.27,1081.28,1104.49,1134.17,1109.70,1140.75,1121.68,1154.71,1169.92,1166.58,1177.07,1194.40,1189.21,1222.09,1241.41,1205.40,1269.43,1238.47,1295.16,1260.52,1291.82,1303.40,1293.64,1315.21,1355.28,1333.11,1344.62,1343.67,1412.18,1385.64,1433.97,1412.95,1463.62,1471.88,1466.88,1472.63,1490.25,1506.08,1556.82,1554.84,1545.39,1578.60,1596.81,1572.21,1626.35,1659.69,1657.04,1678.98,1697.19,1693.68,1727.57,1753.86,1705.27,1739.12,1802.08,1767.53,1771.17,1773.55,1810.11,1770.81,1812.11,1791.07,1783.65,1795.08,1798.86,1788.95,1819.33,1779.48,1793.46,1796.86,1783.32,1789.97,1758.88,1772.30,1764.49,1761.77,1695.05,1732.74,1729.88,1692.46,1678.14,1663.12,1644.22,1665.62,1685.13,1615.37,1603.99,1600.34,1554.60,1559.27,1558.54,1528.30,1556.63,1493.33,1523.80,1521.78,1486.74,1463.13,1457.66,1430.86,1385.98,1394.22,1400.76,1369.43,1367.30,1372.52,1353.25,1358.96,1331.13,1319.76,1285.89,1260.92,1266.62,1247.60,1245.99,1215.06,1240.15,1195.46,1189.40,1182.67,1191.73,1190.41,1177.51,1100.79,1104.16,1085.26,1088.55,1071.64,1037.80,1019.92,996.58,946.51,956.38,982.13,976.23,955.75,928.56,871.45,849.14,817.39,822.58,816.44,774.85,783.79,768.27,725.72,688.35,722.69,675.71,693.81,636.89
491.18,482.68,507.63,499.15,517.74,573.79,567.72,579.35,587.45,609.02,653.85,648.51,636.44,695.01,723.22,712.85,734.94,755.60,712.01,796.27,794.68,796.06,797.21,786.26,819.49,848.04,829.75,863.03,853.15,881.33,873.97,883.67,931.23,924.22,937.30,945.33,1023.25,991.52,1004.06,984.46,1020.08,1015.28,1013.83,1077.59,1059.83,1068.04,1047.26,1050.28,1083.42,1081.90,1114.36,1124.39,1120.77,1144.67,1140.64,1128.03,1150.25,1165.74,1190.52,1185.47,1178.71,1218.80,1216.60,1249.62,1230.40,1218.10,1272.84,1248.51,1276.98,1286.13,1295.00,1302.69,1285.37,1311.05,1366.55,1366.05,1409.35,1364.43,1398.91,1437.41,1417.74,1434.52,1453.75,1466.29,1501.58,1471.21,1555.62,1519.57,1512.39,1570.45,1578.91,1598.54,1623.77,1645.56,1681.20,1648.07,1691.33,1703.48,1649.38,1697.82,1700.36,1745.97,1753.92,1763.68,1758.92,1768.58,1778.85,1777.22,1805.67,1772.65,1781.35,1801.39,1792.61,1777.82,1809.72,1785.77,1777.53,1787.25,1768.31,1780.09,1767.38,1757.34,1749.77,1771.42,1749.86,1698.66,1740.32,1722.30,1709.96,1707.01,1677.61,1677.45,1643.21,1656.66,1631.08,1586.02,1621.00,1584.30,1568.05,1551.06,1539.00,1537.46,1499.62,1474.54,1471.21,1486.78,1462.63,1474.93,1438.23,1443.33,1399.64,1391.89,1387.94,1372.02,1357.42,1332.08,1305.13,1336.78,1321.87,1286.50,1293.61,1269.90,1282.47,1221.13,1231.74,1216.92,1210.89,1224.86,1177.90,1181.29,1149.29,1159.26,1138.23,1101.58,1084.93,1087.28,1048.64,1049.48,1022.16,1019.94,992.36,964.43,982.79,947.59,923.56,914.61,854.11,910.42,849.98,790.90,834.61,776.00,792.13,753.83,700.06,716.72,695.27,694.59,662.09,607.03
507.64,493.37,550.21,522.95,540.15,542.32,563.22,572.41,625.69,590.04,647.27,662.24,687.68,675.43,668.38,699.78,729.33,733.26,752.93,786.81,784.93,790.92,763.57,798.14,818.92,800.50,830.71,860.19,875.93,900.45,898.32,919.28,917.65,938.34,957.80,989.32,960.45,984.31,1009.30,973.42,1052.28,1045.84,997.80,1049.06,1039.80,1052.45,1076.59,1099.66,1078.31,1087.46,1112.77,1125.54,1102.69,1166.03,1127.41,1168.32,1166.86,1178.82,1163.18,1150.25,1193.50,1202.95,1193.67,1240.93,1231.50,1226.54,1264.88,1276.13,1260.59,1310.90,1342.73,1288.02,1318.43,1341.46,1393.28,1346.28,1355.78,1369.58,1427.17,1403.12,1415.07,1451.74,1468.56,1499.27,1495.30,1514.17,1522.90,1514.76,1552.68,1573.70,1579.22,1572.29,1596.14,1633.03,1667.13,1696.37,1672.86,1675.51,1695.14,1693.80,1741.97,1779.74,1733.15,1732.39,1784.76,1778.52,1785.49,1816.28,1761.97,1765.24,1792.77,1799.17,1791.74,1848.03,1791.64,1784.93,1795.60,1808.82,1770.31,1776.47,1793.18,1787.31,1762.86,1798.49,1780.71,1703.36,1687.47,1726.55,1726.81,1683.46,1665.99,1647.39,1627.90,1661.22,1617.88,1618.40,1562.56,1605.73,1583.98,1531.82,1550.36,1531.74,1509.12,1446.58,1477.98,1483.85,1453.50,1446.77,1467.95,1423.34,1369.90,1395.15,1387.90,1356.52,1374.88,1318.13,1331.82,1292.31,1303.06,1310.31,1280.04,1265.93,1257.87,1245.76,1244.84,1231.60,1232.52,1193.75,1143.31,1179.61,1175.15,1182.85,1147.88,1094.00,1092.24,1067.50,1048.91,1038.61,1050.14,975.89,970.58,997.69,984.76,924.60,952.64,920.73,877.21,814.98,811.24,812.17,821.11,801.60,757.33,742.27,726.42,702.83,690.62,666.91,614.25,623.89
486.64,520.96,498.71,533.68,555.21,555.39,537.73,607.53,616.80,620.97,631.74,609.84,675.46,704.16,666.57,730.09,740.09,708.78,737.84,731.78,772.24,796.22,774.42,821.97,840.30,853.68,862.62,841.71,876.40,898.24,932.59,915.39,935.62,920.04,926.95,935.55,963.76,1024.18,985.46,1011.18,1025.22,1002.26,1025.24,1056.11,1061.72,1022.67,1083.70,1069.93,1079.50,1107.05,1138.29,1112.65,1149.04,1105.42,1145.63,1140.99,1166.29,1163.64,1151.73,1169.90,1164.02,1180.12,1225.41,1220.53,1240.12,1282.00,1250.21,1279.51,1278.37,1344.34,1240.32,1298.22,1337.88,1322.29,1361.54,1362.22,1394.24,1368.13,1408.36,1428.64,1436.64,1451.91,1488.11,1445.78,1497.35,1486.25,1541.24,1525.01,1507.99,1588.67,1583.16,1610.98,1647.48,1641.18,1651.62,1661.38,1653.02,1684.81,1741.18,1706.19,1721.90,1760.79,1714.70,1767.02,1731.10,1778.27,1776.36,1794.67,1766.86,1780.15,1806.91,1785.26,1811.44,1800.43,1786.30,1786.96,1790.47,1782.25,1796.65,1769.19,1758.93,1781.61,1747.25,1736.51,1688.58,1707.90,1701.76,1697.07,1682.31,1704.89,1657.82,1647.09,1651.70,1613.80,1654.15,1625.77,1573.09,1603.35,1594.05,1533.26,1519.26,1516.81,1487.17,1486.36,1480.48,1485.14,1463.31,1445.41,1425.46,1395.78,1420.65,1407.14,1370.40,1347.74,1387.95,1348.86,1338.96,1326.93,1281.16,1322.25,1271.20,1282.65,1282.24,1241.46,1202.85,1163.12,1198.59,1190.55,1159.94,1160.08,1151.57,1148.21,1108.89,1097.43,1079.37,1067.96,1041.09,1024.78,1009.54,1004.98,967.84,958.42,986.00,949.87,894.66,912.71,889.36,855.91,824.81,803.35,804.92,764.05,783.34,769.36,721.19,725.09,674.36,648.61,665.28,655.33
525.71,507.18,531.95,535.19,571.41,566.43,588.35,564.06,596.69,632.15,644.93,662.98,661.95,661.00,687.30,703.81,722.01,712.04,740.20,757.76,728.59,803.85,804.10,819.61,817.31,852.50,837.12,853.06,891.74,898.74,878.28,947.42,912.54,936.69,985.71,920.81,938.92,992.71,944.94,964.09,1038.73,1017.13,1079.15,1024.28,1048.20,1074.84,1082.78,1077.45,1078.68,1105.29,1137.14,1133.74,1114.67,1116.31,1131.10,1128.32,1165.62,1187.88,1179.19,1224.12,1234.47,1214.50,1231.93,1209.62,1230.35,1273.18,1246.55,1298.55,1302.00,1306.01,1279.05,1308.09,1339.37,1319.24,1347.94,1379.88,1366.90,1375.05,1369.98,1412.55,1450.29,1432.15,1464.96,1475.28,1481.75,1527.26,1558.84,1561.60,1543.09,1612.29,1607.78,1593.74,1602.30,1654.86,1650.22,1643.64,1671.17,1678.96,1683.05,1731.64,1738.15,1749.76,1759.21,1733.35,1747.72,1796.25,1775.64,1749.56,1787.89,1800.28,1800.36,1772.87,1830.15,1762.26,1793.40,1823.91,1798.11,1799.22,1756.79,1779.34,1765.43,1736.56,1768.76,1726.68,1720.04,1733.11,1711.45,1707.06,1688.48,1709.32,1650.68,1647.68,1654.11,1611.99,1598.16,1608.44,1609.77,1599.00,1567.43,1538.64,1544.05,1536.31,1516.67,1522.59,1464.12,1457.01,1479.45,1414.73,1420.11,1403.02,1373.19,1387.60,1393.18,1368.34,1368.18,1363.03,1318.49,1366.15,1293.29,1282.90,1259.90,1271.79,1241.83,1232.71,1216.73,1202.68,1196.66,1170.58,1157.43,1172.67,1130.85,1129.68,1089.27,1082.97,1051.76,1097.79,1072.23,1040.37,1054.96,1010.55,974.63,968.18,970.35,907.67,883.72,896.97,858.57,806.36,807.77,807.30,795.26,776.50,795.60,731.83,721.98,664.32,676.65,664.43,610.77,600.23
495.42,488.79,511.85,539.00,583.28,552.54,606.84,546.82,603.52,608.45,619.07,657.45,654.55,632.86,656.06,716.68,683.83,745.81,747.48,755.63,771.34,797.07,776.89,814.80,804.53,843.79,866.47,869.71,891.23,877.53,902.58,911.15,921.73,923.47,942.34,940.01,939.47,970.23,1007.45,1010.12,990.63,1017.78,1049.71,1036.70,1026.96,1109.97,1070.85,1060.17,1096.01,1099.93,1079.79,1121.40,1148.08,1132.60,1104.90,1161.80,1175.91,1161.07,1170.24,1236.09,1187.01,1187.11,1219.58,1240.29,1249.35,1199.47,1245.99,1292.88,1287.24,1267.15,1328.17,1334.38,1321.21,1357.11,1392.20,1344.11,1389.61,1431.82,1419.04,1405.05,1439.32,1476.57,1443.69,1478.41,1489.29,1496.78,1529.56,1538.05,1568.25,1593.44,1560.29,1602.05,1614.37,1633.95,1643.69,1638.11,1700.11,1721.42,1706.99,1719.66,1721.32,1748.39,1689.72,1747.30,1743.92,1765.43,1790.63,1774.54,1771.41,1754.09,1782.57,1799.85,1770.30,1746.83,1831.24,1790.40,1776.31,1804.74,1775.09,1793.42,1785.44,1728.02,1755.00,1771.92,1708.43,1699.09,1692.34,1715.86,1692.66,1636.77,1670.44,1646.40,1636.73,1609.52,1620.29,1621.24,1574.14,1539.97,1554.12,1561.80,1524.72,1489.63,1521.29,1520.79,1479.37,1433.37,1445.70,1441.70,1409.14,1423.72,1380.67,1386.15,1367.92,1371.69,1346.00,1329.29,1304.09,1307.76,1288.76,1263.42,1270.83,1261.67,1234.28,1246.24,1219.34,1174.70,1213.29,1187.89,1178.42,1152.03,1082.70,1136.53,1100.88,1091.48,1079.73,1091.90,1026.24,1010.49,987.35,966.17,949.49,916.17,944.17,957.59,940.83,864.49,857.63,869.09,834.24,809.31,782.37,791.86,727.52,739.24,717.12,691.67,687.17,652.74,622.10,615.46
452.84,511.00,530.29,514.06,523.66,543.58,569.20,589.31,631.87,643.92,645.36,645.74,639.34,706.00,681.93,706.94,728.21,731.17,767.13,767.29,791.91,794.91,798.90,814.69,825.35,814.14,832.87,880.58,853.29,882.90,882.31,906.28,924.26,930.97,922.06,958.25,953.91,971.29,1009.57,1024.41,989.44,1057.21,1025.65,1033.67,1037.55,1066.04,1113.96,1052.82,1051.65,1107.24,1122.26,1120.87,1140.62,1114.95,1127.53,1157.78,1199.35,1184.35,1194.30,1169.79,1208.93,1186.19,1254.70,1208.79,1222.97,1219.52,1261.01,1270.73,1310.93,1307.29,1287.32,1332.27,1301.90,1324.67,1353.98,1341.85,1398.96,1436.71,1398.98,1405.84,1430.53,1436.45,1467.50,1450.65,1498.44,1545.38,1482.23,1514.05,1543.64,1578.43,1600.33,1613.48,1577.97,1612.58,1621.98,1652.22,1666.98,1651.84,1682.49,1714.36,1701.01,1719.71,1767.06,1781.56,1706.37,1758.88,1821.08,1777.56,1772.70,1802.01,1782.61,1794.00,1776.24,1784.22,1787.47,1794.13,1765.18,1760.78,1726.71,1752.01,1772.53,1755.72,1718.80,1692.27,1718.50,1730.24,1692.07,1662.14,1668.18,1675.03,1681.52,1639.38,1653.16,1638.25,1582.94,1618.40,1586.07,1542.69,1588.61,1537.40,1487.51,1498.70,1480.22,1472.09,1463.29,1453.56,1439.35,1429.89,1430.23,1390.23,1415.51,1354.16,1377.77,1385.16,1335.60,1329.89,1293.52,1289.50,1317.92,1288.32,1268.46,1207.99,1219.01,1254.60,1214.41,1203.15,1181.95,1152.21,1156.89,1105.22,1089.09,1091.66,1095.16,1044.64,1063.06,1024.86,1011.54,1038.46,996.70,961.11,965.90,915.50,935.03,931.79,904.92,916.68,816.39,839.16,791.05,795.61,780.14,806.64,740.70,721.13,723.58,683.19,701.67,659.29,643.39,570.49
523.27,484.48,511.58,512.97,519.88,530.74,571.32,544.38,593.48,634.06,640.13,650.72,638.72,639.44,706.48,691.09,712.77,724.75,756.34,793.84,800.18,738.13,792.31,785.11,844.23,838.78,863.91,856.81,856.63,872.59,871.64,889.18,896.93,917.45,927.88,968.96,979.34,991.06,1017.47,1002.97,999.31,1069.36,1053.28,1048.08,1056.41,1070.11,1069.70,1085.61,1102.23,1086.81,1077.67,1077.79,1145.96,1105.42,1155.24,1131.71,1140.92,1158.25,1185.50,1164.93,1187.55,1208.70,1194.48,1256.88,1203.69,1243.80,1283.86,1242.41,1277.44,1293.30,1285.79,1311.94,1336.58,1328.16,1365.24,1370.55,1364.08,1411.61,1387.83,1433.61,1416.12,1438.56,1456.12,1480.79,1440.54,1512.85,1516.57,1539.29,1558.55,1571.22,1537.92,1571.40,1613.60,1624.99,1618.92,1662.80,1655.81,1691.06,1709.42,1702.06,1718.25,1704.93,1744.19,1739.18,1736.61,1724.97,1745.64,1738.27,1779.91,1792.40,1788.71,1821.57,1763.19,1783.95,1747.11,1764.62,1735.97,1772.97,1749.76,1710.25,1731.34,1773.87,1738.49,1737.28,1715.42,1699.70,1693.54,1687.54,1649.66,1675.41,1670.78,1632.27,1613.33,1596.29,1633.43,1576.15,1585.06,1554.89,1540.40,1516.51,1498.88,1519.54,1471.34,1486.90,1465.94,1465.68,1424.97,1445.35,1407.54,1448.85,1351.43,1419.03,1354.69,1348.47,1318.73,1286.25,1293.88,1283.93,1281.67,1287.16,1255.23,1242.18,1232.23,1175.87,1164.03,1153.53,1162.04,1117.96,1127.32,1099.29,1121.75,1105.89,1076.05,1028.76,1046.49,1042.05,1035.69,1038.30,1009.11,973.31,947.34,920.98,945.52,904.09,895.51,853.03,821.78,820.18,803.57,794.77,757.38,753.73,757.82,681.80,653.89,702.12,628.93,631.66,632.57,600.47
480.82,497.76,560.81,560.28,525.11,574.40,577.94,581.94,578.71,620.45,619.87,632.97,639.76,689.62,668.74,683.28,728.42,724.25,738.97,776.05,795.63,740.65,794.33,782.27,816.15,837.01,843.13,842.64,854.36,902.99,931.48,871.74,918.37,951.33,947.61,937.36,961.25,987.82,986.41,1002.19,1013.17,1013.28,1050.15,1034.15,1033.31,1107.59,1070.87,1029.74,1116.03,1125.07,1118.20,1130.63,1170.09,1116.50,1147.26,1192.84,1205.94,1163.90,1220.39,1205.29,1228.30,1223.06,1223.19,1270.85,1225.84,1284.42,1297.76,1294.21,1276.16,1293.39,1274.18,1302.08,1335.29,1306.37,1341.26,1398.72,1369.63,1406.55,1410.64,1406.83,1423.79,1444.35,1414.30,1488.72,1482.00,1518.69,1521.55,1525.28,1547.19,1561.89,1601.91,1587.98,1606.60,1589.43,1627.24,1670.39,1662.57,1644.58,1658.39,1674.12,1719.40,1726.72,1649.17,1724.93,1737.03,1721.53,1738.82,1778.23,1763.88,1748.90,1757.43,1757.98,1768.64,1733.95,1747.79,1779.66,1754.39,1734.90,1730.95,1755.98,1724.89,1738.42,1707.93,1689.49,1707.99,1691.59,1697.15,1690.56,1654.70,1657.42,1630.88,1639.23,1618.84,1589.06,1574.54,1581.05,1585.75,1567.24,1516.98,1505.63,1495.09,1483.44,1445.51,1484.11,1445.67,1450.54,1421.52,1413.95,1387.31,1387.09,1356.91,1360.63,1376.93,1344.96,1327.15,1281.71,1306.22,1294.92,1273.72,1259.33,1238.87,1241.22,1242.65,1207.70,1167.92,1155.60,1174.03,1126.09,1135.07,1109.65,1080.44,1103.66,1086.07,1029.53,1050.76,1032.09,1026.16,996.55,1005.31,957.57,937.76,906.59,890.07,870.71,877.82,850.14,844.03,794.97,783.64,764.78,806.99,741.58,724.80,705.78,719.56,637.43,649.72,599.75,565.98,580.37
489.09,478.88,516.85,525.26,534.63,577.07,554.27,588.27,559.11,611.67,619.09,615.13,661.27,653.01,716.89,647.96,715.94,726.08,733.77,742.87,768.78,802.48,761.49,792.37,800.89,813.19,855.07,872.91,895.16,898.50,912.48,882.69,952.56,930.46,966.89,930.08,963.95,998.61,991.09,986.04,1037.72,998.31,1031.38,1054.47,1093.30,1051.78,1064.85,1070.79,1093.64,1109.72,1128.83,1131.01,1114.82,1149.87,1144.25,1166.14,1176.12,1201.54,1170.78,1175.96,1204.91,1228.84,1215.70,1249.00,1247.53,1239.58,1264.96,1255.30,1279.32,1263.88,1295.04,1327.73,1334.69,1343.66,1349.16,1359.06,1343.26,1377.48,1398.51,1385.87,1387.05,1458.59,1451.14,1468.58,1489.88,1473.59,1499.69,1552.37,1527.01,1545.88,1552.10,1564.78,1615.60,1557.57,1611.25,1637.81,1679.72,1635.07,1643.13,1662.93,1704.42,1702.49,1680.01,1718.99,1755.38,1736.18,1739.88,1745.93,1753.68,1723.12,1746.00,1748.31,1742.59,1765.45,1737.62,1740.80,1719.64,1748.41,1754.88,1723.23,1740.26,1714.12,1658.77,1699.91,1688.45,1684.47,1677.40,1648.11,1680.23,1638.09,1623.67,1630.49,1603.62,1641.97,1573.65,1571.90,1536.74,1555.89,1531.30,1504.93,1480.80,1458.56,1479.62,1429.99,1470.40,1405.49,1413.73,1386.24,1391.13,1377.65,1372.69,1319.97,1321.95,1343.38,1323.89,1247.48,1291.77,1250.30,1245.81,1239.75,1262.05,1196.57,1175.80,1199.23,1175.91,1186.73,1141.52,1158.63,1120.42,1116.18,1123.40,1072.71,1081.89,1033.45,1034.79,985.64,988.52,961.30,990.51,984.28,925.60,900.21,872.17,886.32,851.37,834.65,860.27,803.65,803.09,774.08,727.48,699.18,727.27,733.02,686.64,674.25,625.13,645.05,626.42,574.18
490.16,457.86,521.72,509.95,511.09,558.00,528.90,585.61,570.58,580.79,623.42,633.27,680.34,639.97,707.58,671.70,727.14,745.10,743.54,735.32,734.61,739.84,829.59,800.14,797.37,809.82,849.10,850.74,832.96,901.17,902.91,945.16,943.13,870.11,971.97,979.13,951.42,968.45,996.11,978.16,1003.98,1039.04,1039.43,1025.60,1069.09,1064.24,1072.97,1066.58,1085.92,1079.63,1065.27,1107.39,1119.38,1133.37,1163.65,1135.13,1149.61,1181.11,1159.60,1186.67,1184.47,1196.91,1226.22,1213.01,1245.89,1200.81,1221.25,1213.68,1247.17,1318.30,1291.75,1288.87,1330.42,1344.99,1314.11,1400.79,1368.91,1384.26,1399.23,1412.51,1403.71,1472.12,1438.07,1476.98,1462.50,1473.20,1538.59,1512.69,1528.44,1548.98,1609.41,1614.64,1610.60,1655.39,1592.48,1637.18,1637.84,1612.72,1668.62,1660.22,1710.77,1681.60,1689.15,1736.81,1712.02,1742.97,1733.75,1738.71,1728.91,1746.78,1736.16,1723.88,1738.14,1765.36,1748.82,1751.10,1732.55,1689.73,1699.21,1712.25,1688.97,1694.12,1685.65,1677.88,1708.26,1668.92,1678.63,1652.69,1666.77,1647.51,1603.55,1642.59,1581.96,1582.49,1573.27,1562.56,1555.62,1511.35,1527.43,1511.43,1486.39,1469.12,1443.28,1455.56,1419.27,1423.78,1403.56,1365.49,1360.13,1373.54,1341.64,1327.66,1310.28,1297.70,1331.90,1263.39,1301.98,1252.63,1232.85,1240.24,1220.21,1201.71,1196.49,1179.18,1160.36,1169.50,1107.83,1104.31,1092.52,1072.65,1080.87,1074.42,1010.02,1024.56,1012.17,997.24,961.40,964.76,936.53,931.57,887.16,898.10,873.18,865.02,858.83,834.29,833.28,792.28,793.84,785.82,750.58,726.40,716.77,696.31,691.80,669.32,651.28,617.83,605.65,587.26
453.35,512.76,471.99,533.72,539.00,542.24,570.07,585.00,564.89,633.81,621.38,680.69,664.63,664.23,663.81,689.72,709.19,749.68,759.00,757.49,797.73,735.79,799.00,828.36,827.54,803.13,870.60,870.90,875.21,882.61,933.03,914.16,912.36,912.70,955.60,971.51,964.04,962.69,1011.19,977.39,1044.88,1000.98,1000.11,1012.50,1022.98,1049.97,1054.71,1093.82,1100.09,1087.01,1162.48,1104.53,1115.99,1101.27,1133.93,1150.21,1129.30,1151.77,1177.09,1168.92,1173.69,1213.08,1180.99,1194.21,1229.01,1252.06,1251.13,1250.62,1259.31,1296.17,1303.94,1298.82,1303.59,1321.43,1318.04,1341.70,1347.30,1367.72,1373.55,1406.22,1425.44,1415.00,1420.05,1464.36,1467.77,1470.77,1519.68,1494.95,1480.42,1520.08,1580.43,1555.36,1564.84,1588.84,1621.36,1611.94,1637.45,1633.40,1660.21,1662.30,1660.60,1682.92,1675.41,1666.48,1700.65,1681.48,1724.61,1716.46,1749.37,1717.12,1725.27,1697.33,1704.82,1692.62,1746.17,1713.00,1745.47,1661.23,1740.93,1702.96,1704.75,1669.62,1693.68,1667.29,1641.92,1632.14,1621.76,1643.38,1612.14,1580.73,1609.25,1546.42,1604.20,1604.84,1526.15,1560.55,1533.44,1503.30,1490.98,1499.80,1472.53,1408.03,1487.94,1441.70,1418.55,1391.80,1388.98,1404.76,1371.26,1360.20,1314.41,1319.12,1313.87,1313.53,1278.03,1291.66,1236.95,1247.95,1231.29,1189.57,1205.51,1181.33,1207.70,1157.56,1159.02,1113.51,1128.86,1101.68,1080.17,1137.92,1059.55,1047.58,1054.87,1006.29,1014.35,1000.92,979.84,1004.89,926.70,957.16,919.28,911.26,882.94,896.56,835.30,834.20,832.77,777.77,791.13,752.83,710.50,688.12,697.24,700.77,621.27,648.79,644.61,583.25,578.28,584.67
492.54,521.48,491.60,501.05,564.54,530.59,570.10,617.93,603.68,618.67,642.96,642.29,661.93,653.67,698.04,697.37,673.74,722.29,688.08,759.69,754.57,811.07,796.34,818.47,792.30,840.12,826.60,874.03,842.49,879.51,866.42,904.17,953.98,939.64,936.05,898.75,948.37,979.47,970.46,1019.72,1002.93,1033.21,1025.69,1025.86,1031.58,1030.24,1081.75,1060.45,1088.54,1076.55,1074.28,1115.85,1098.55,1114.16,1105.86,1129.62,1148.62,1151.07,1181.91,1177.24,1244.95,1200.66,1166.56,1206.24,1217.36,1217.18,1240.66,1236.30,1266.00,1231.58,1303.29,1259.74,1297.20,1299.24,1331.69,1333.85,1354.75,1384.39,1390.23,1388.50,1410.08,1453.40,1443.76,1435.42,1480.57,1476.63,1463.39,1492.86,1480.83,1478.29,1518.60,1553.44,1566.69,1548.87,1542.12,1631.33,1615.63,1656.17,1665.85,1660.83,1656.97,1656.83,1687.47,1677.49,1675.73,1651.62,1697.15,1725.15,1731.96,1710.53,1693.52,1730.30,1712.02,1704.22,1680.77,1749.47,1718.85,1716.88,1677.79,1690.97,1681.36,1691.55,1695.36,1631.12,1629.37,1654.29,1621.22,1637.22,1602.57,1573.79,1551.95,1584.89,1573.17,1569.95,1544.44,1449.90,1522.13,1469.81,1448.41,1432.72,1417.55,1451.37,1417.78,1388.63,1406.08,1370.12,1398.49,1394.53,1347.85,1366.45,1353.15,1314.07,1333.81,1273.48,1233.58,1228.37,1232.86,1243.64,1196.56,1192.79,1167.92,1166.39,1192.76,1159.42,1127.00,1149.10,1111.23,1099.28,1105.21,1061.10,1071.70,1055.54,1020.81,980.70,993.59,1000.60,978.58,980.53,920.46,929.60,877.46,885.00,886.29,865.36,832.18,807.50,775.58,773.46,734.17,735.82,688.80,680.74,706.33,686.26,647.82,637.10,622.03,609.59,589.88,538.63
424.63,466.90,498.01,534.27,533.80,553.93,539.50,570.26,587.27,585.15,593.20,624.38,656.44,639.41,667.59,713.05,689.69,714.28,726.00,738.23,789.13,775.52,751.52,826.88,815.04,815.16,862.54,832.73,895.19,875.14,905.59,958.85,912.93,919.02,911.04,941.21,933.93,961.75,1034.03,988.98,985.77,1002.73,1008.59,1047.53,1034.33,1077.72,1048.49,1058.92,1055.04,1074.21,1056.02,1056.83,1120.58,1081.80,1133.41,1123.85,1161.23,1116.56,1171.63,1174.99,1184.38,1208.47,1196.38,1155.14,1222.34,1229.19,1227.53,1225.41,1245.06,1291.70,1254.64,1248.97,1265.40,1305.31,1350.93,1373.37,1354.29,1333.91,1348.51,1396.23,1418.25,1391.87,1446.44,1426.74,1459.11,1481.29,1442.34,1494.60,1527.69,1501.38,1504.80,1548.99,1554.71,1558.17,1577.03,1555.66,1608.72,1643.59,1608.04,1615.81,1645.27,1707.53,1680.73,1664.25,1673.59,1702.65,1665.57,1700.24,1669.08,1712.49,1689.83,1700.57,1689.36,1709.64,1690.45,1734.55,1716.40,1657.77,1682.74,1687.93,1657.66,1683.99,1673.90,1641.99,1654.36,1577.06,1642.47,1622.63,1572.30,1587.87,1530.73,1544.11,1569.14,1534.58,1520.88,1510.38,1495.12,1503.26,1458.00,1465.55,1421.01,1445.42,1410.85,1403.12,1383.36,1372.56,1343.86,1357.25,1348.49,1297.53,1298.98,1298.30,1272.52,1266.85,1290.44,1224.56,1185.47,1206.50,1198.65,1182.10,1183.91,1144.54,1128.09,1124.51,1111.23,1152.92,1127.63,1049.14,1029.74,1052.27,1077.72,1038.15,1009.34,985.87,1001.35,967.99,983.52,899.39,925.70,889.86,893.14,873.42,861.99,854.58,845.91,840.10,784.22,755.78,724.74,740.51,731.00,669.79,702.08,659.59,618.95,609.58,590.22,573.20,585.83,574.55
505.23,470.95,505.55,499.63,526.94,510.98,532.23,584.92,553.39,609.58,598.00,587.25,589.22,683.46,630.25,681.18,703.60,684.24,713.33,747.77,757.75,756.25,783.64,790.17,785.97,842.39,835.38,807.07,866.85,856.42,875.08,892.98,888.71,952.19,897.63,939.79,957.25,961.22,967.15,973.81,975.48,985.14,1034.56,1012.22,1073.19,1053.27,995.74,1075.82,1066.03,1048.13,1110.74,1084.59,1091.47,1117.93,1141.78,1129.67,1136.71,1130.43,1175.42,1163.95,1165.64,1171.91,1208.30,1191.51,1226.48,1205.76,1239.12,1238.49,1225.22,1252.60,1220.86,1260.36,1254.50,1337.07,1277.11,1371.71,1342.08,1333.46,1372.23,1355.70,1353.08,1395.71,1421.14,1445.86,1443.49,1436.26,1487.92,1496.80,1492.22,1524.28,1556.85,1515.19,1520.77,1539.74,1536.31,1586.87,1554.19,1622.56,1594.19,1644.62,1575.54,1627.57,1617.33,1677.48,1690.47,1615.71,1684.83,1693.00,1681.42,1689.11,1689.26,1697.07,1657.72,1702.63,1681.01,1677.20,1682.13,1641.17,1630.55,1653.50,1680.38,1618.72,1638.20,1612.04,1600.45,1618.06,1613.31,1571.99,1604.70,1574.23,1549.44,1549.41,1571.10,1533.12,1491.55,1492.45,1482.60,1480.32,1458.74,1478.72,1423.09,1379.79,1405.42,1379.04,1344.52,1347.27,1340.92,1357.65,1291.98,1315.44,1339.68,1278.62,1264.88,1270.22,1253.13,1257.89,1213.03,1217.24,1204.33,1170.00,1161.11,1149.79,1111.80,1115.24,1139.30,1116.39,1070.18,1067.48,1073.11,1048.28,1041.00,1021.12,1000.01,977.49,941.84,964.34,930.64,886.53,892.81,904.83,833.36,834.83,841.75,850.56,825.74,818.95,776.14,750.76,754.69,702.65,683.85,663.02,690.61,634.85,654.29,620.02,621.93,560.71,553.33,558.07
460.23,432.55,468.66,487.63,502.99,551.36,558.48,569.05,620.09,617.55,624.23,592.43,637.66,656.56,656.35,712.80,693.66,681.96,700.38,779.68,739.23,719.55,762.49,751.16,819.12,774.59,798.41,839.12,873.65,862.31,850.60,891.27,889.93,933.42,939.14,922.38,959.60,960.12,992.52,990.23,996.54,1022.09,1005.59,999.40,1028.29,1026.42,1054.73,1052.86,1068.53,1045.13,1088.02,1060.71,1114.14,1122.60,1118.69,1126.30,1124.00,1124.79,1144.98,1193.40,1166.87,1144.00,1145.48,1159.74,1189.95,1231.97,1195.52,1253.94,1238.82,1254.83,1264.44,1277.53,1268.12,1240.53,1286.56,1291.93,1327.49,1337.49,1339.71,1392.53,1357.05,1337.97,1397.65,1431.95,1426.91,1427.09,1452.13,1497.19,1455.96,1487.04,1512.66,1517.00,1519.41,1528.02,1542.70,1570.55,1580.48,1623.54,1561.05,1636.55,1606.31,1616.98,1643.69,1650.59,1662.97,1672.87,1649.34,1681.85,1644.66,1653.45,1657.39,1651.14,1662.67,1678.37,1671.61,1643.64,1638.53,1631.09,1644.98,1605.87,1613.26,1614.82,1637.39,1605.34,1619.23,1593.47,1570.36,1560.85,1535.46,1595.73,1558.44,1536.55,1486.40,1491.19,1468.27,1477.71,1443.85,1436.10,1418.51,1418.68,1411.79,1392.95,1414.70,1387.08,1342.01,1350.99,1317.29,1310.25,1314.59,1305.20,1267.03,1243.59,1254.36,1248.22,1213.69,1229.70,1213.06,1174.09,1196.60,1184.01,1188.90,1168.47,1102.79,1125.87,1111.41,1073.18,1075.47,1014.92,1000.34,989.99,1017.76,1004.25,975.43,1000.56,970.94,904.14,917.40,886.61,898.09,873.44,840.48,875.96,827.01,801.20,787.98,808.83,777.99,739.74,706.28,692.48,682.60,685.39,673.38,626.74,640.30,589.19,578.28,544.75,527.49,522.15
465.77,459.88,523.31,488.38,524.48,561.06,550.42,555.25,579.48,579.33,584.59,630.90,621.01,665.42,676.57,677.89,707.84,691.33,731.58,745.08,736.98,747.80,776.23,822.13,791.09,799.54,844.79,835.08,863.35,887.66,831.99,881.14,888.87,885.60,877.66,895.19,939.90,937.72,942.76,970.89,965.18,1014.66,986.09,1038.10,1016.71,1013.43,1020.99,1074.64,1067.03,1046.56,1072.67,1031.57,1060.49,1080.44,1088.23,1136.25,1081.96,1099.95,1145.85,1149.75,1146.55,1203.09,1182.98,1203.80,1187.18,1186.33,1195.73,1234.28,1240.73,1230.66,1254.44,1274.47,1254.38,1269.46,1296.17,1262.61,1319.08,1298.87,1352.02,1388.17,1343.49,1342.82,1378.75,1389.69,1420.96,1425.23,1427.47,1448.04,1436.57,1488.30,1516.65,1472.75,1477.30,1512.77,1507.99,1518.16,1526.50,1561.07,1566.63,1591.69,1581.77,1576.87,1608.39,1594.40,1631.93,1593.73,1588.36,1603.28,1630.11,1634.93,1644.77,1631.28,1625.35,1669.83,1662.62,1656.24,1639.19,1636.51,1607.62,1620.88,1592.78,1583.45,1564.47,1596.66,1582.98,1564.30,1551.85,1513.66,1544.72,1522.24,1535.10,1508.43,1507.69,1481.27,1472.69,1475.15,1440.00,1440.50,1409.30,1402.59,1424.07,1391.95,1355.23,1361.42,1314.26,1322.34,1294.61,1309.65,1283.77,1280.18,1276.97,1239.28,1226.99,1221.74,1192.28,1196.26,1184.29,1174.99,1165.73,1112.15,1105.34,1094.47,1106.37,1085.44,1032.31,1103.03,1010.63,1037.23,1033.97,994.26,1007.27,959.97,969.08,907.42,959.71,921.32,874.31,903.52,908.18,841.44,840.06,818.11,797.01,778.79,767.14,751.88,740.17,722.20,729.42,710.99,650.21,652.31,672.49,636.67,620.82,602.30,575.75,563.71,540.10,549.07
455.67,474.67,505.11,497.43,516.23,524.22,543.40,552.55,562.20,572.68,597.31,635.05,641.08,610.91,647.76,657.38,652.64,703.06,709.22,765.09,731.33,735.76,746.96,768.39,802.09,817.09,874.06,803.79,841.86,838.47,871.01,903.32,904.37,874.25,923.17,878.08,883.43,936.54,964.02,968.87,1009.93,983.73,988.95,1023.56,1002.19,1026.50,1036.61,1016.96,1052.78,1097.26,1084.71,1053.53,1125.35,1100.57,1103.43,1101.13,1124.86,1121.57,1127.89,1133.04,1163.44,1169.57,1157.77,1138.93,1178.72,1172.49,1186.38,1202.53,1193.20,1191.77,1239.61,1244.31,1253.78,1274.69,1261.99,1292.76,1324.01,1303.55,1358.22,1333.02,1326.95,1373.12,1366.16,1401.86,1401.57,1399.30,1448.85,1421.02,1400.22,1473.58,1475.29,1506.10,1474.73,1499.08,1508.19,1545.07,1550.03,1551.47,1561.28,1542.99,1589.97,1598.35,1635.71,1605.95,1615.13,1617.23,1598.19,1640.78,1617.55,1616.87,1619.29,1621.10,1612.32,1625.16,1616.94,1612.46,1622.34,1609.76,1592.13,1582.21,1593.04,1569.08,1559.98,1552.01,1564.41,1573.88,1547.20,1547.77,1518.04,1511.31,1530.23,1502.17,1492.49,1456.40,1449.31,1445.10,1412.28,1364.46,1406.87,1405.31,1374.27,1348.29,1340.62,1293.67,1314.58,1285.95,1281.27,1258.98,1243.71,1236.31,1256.12,1220.35,1195.48,1219.82,1194.41,1131.65,1185.90,1154.48,1155.46,1122.53,1146.05,1093.19,1034.91,1056.56,1071.02,1050.70,1031.51,1000.56,1006.86,992.29,978.03,975.09,953.64,930.49,900.86,933.35,930.86,911.05,874.93,812.09,794.15,803.50,797.62,780.93,770.74,722.94,766.77,748.49,675.85,648.50,667.55,678.19,635.91,625.38,595.04,590.47,590.22,563.45,550.69,490.02
503.45,440.91,490.42,497.74,512.16,545.31,527.43,546.66,546.14,605.31,601.99,623.21,640.49,677.84,688.08,671.88,682.19,681.93,720.91,733.53,718.06,760.18,778.97,749.25,788.22,795.69,809.32,802.63,797.23,830.56,839.48,875.99,887.66,897.67,874.44,890.74,911.36,934.52,937.53,960.42,983.50,953.61,963.80,994.99,999.73,1025.17,1019.23,1062.54,1004.49,1061.45,1056.93,1033.09,1027.92,1054.85,1109.56,1115.28,1098.79,1102.11,1100.25,1121.68,1124.06,1175.94,1125.29,1166.27,1202.09,1191.10,1161.95,1162.59,1208.12,1215.02,1246.25,1242.38,1231.75,1240.64,1236.06,1275.47,1255.73,1313.16,1318.10,1329.01,1303.15,1338.47,1345.71,1367.70,1388.44,1379.89,1392.96,1428.38,1404.46,1424.29,1451.39,1481.15,1455.45,1522.03,1470.33,1539.11,1542.46,1499.80,1505.20,1561.17,1547.59,1542.77,1606.27,1552.61,1567.71,1575.12,1535.59,1596.93,1579.61,1615.99,1619.75,1605.91,1605.67,1602.82,1583.50,1582.39,1617.56,1601.48,1585.86,1588.00,1568.38,1566.26,1566.82,1505.23,1556.10,1545.42,1503.41,1533.77,1454.02,1494.54,1477.08,1458.60,1453.43,1452.73,1392.81,1436.61,1395.92,1411.86,1391.75,1357.51,1351.75,1340.08,1359.76,1291.94,1293.11,1257.34,1278.59,1250.78,1240.36,1267.27,1208.29,1208.76,1189.98,1178.44,1228.99,1126.05,1160.81,1183.64,1143.80,1110.24,1072.88,1109.41,1088.98,1026.48,1037.43,1006.38,959.88,978.94,991.99,987.71,955.74,975.66,954.60,917.21,900.22,898.35,875.61,832.59,840.20,844.29,842.00,819.52,791.50,798.34,761.96,735.90,751.36,720.23,715.86,650.02,640.49,625.26,629.16,645.96,570.67,595.60,537.55,588.16,498.18,529.36
475.26,483.18,466.47,476.21,536.20,545.20,558.48,574.49,534.28,547.34,578.90,596.39,607.91,638.81,669.15,654.51,657.56,703.52,694.95,715.95,720.28,746.73,732.53,780.07,777.49,775.30,813.49,799.69,812.52,814.69,816.23,872.39,896.22,874.92,878.78,869.13,872.33,940.57,896.59,923.04,961.24,966.84,980.84,983.61,985.28,978.46,997.19,1012.60,988.96,1019.30,1035.74,1037.48,1052.40,1080.56,1090.90,1113.15,1060.60,1090.19,1131.02,1079.45,1098.80,1118.03,1179.35,1127.20,1176.72,1162.98,1149.25,1236.99,1193.88,1206.70,1219.25,1227.30,1271.02,1273.73,1229.64,1299.13,1255.45,1286.80,1262.44,1323.50,1308.09,1302.88,1361.41,1378.25,1390.89,1343.06,1417.04,1391.60,1450.63,1434.01,1438.32,1445.08,1456.04,1453.88,1456.96,1481.58,1522.77,1480.71,1544.68,1529.44,1550.35,1558.94,1567.77,1555.93,1562.11,1583.82,1549.24,1549.56,1566.76,1583.65,1617.34,1580.13,1618.64,1587.62,1566.14,1595.28,1563.87,1569.41,1532.61,1523.43,1558.30,1562.29,1571.52,1508.26,1545.03,1532.87,1487.12,1514.65,1495.33,1488.50,1497.90,1465.17,1388.79,1426.12,1376.28,1398.44,1384.94,1358.93,1337.51,1334.83,1326.02,1317.41,1309.42,1306.26,1275.55,1294.64,1255.53,1262.05,1224.75,1273.00,1214.78,1225.45,1166.19,1158.45,1149.68,1191.50,1125.08,1100.15,1129.89,1092.25,1073.88,1053.15,1062.18,1060.63,1042.04,1003.50,980.04,906.02,954.00,951.86,944.39,926.30,973.75,913.44,864.62,888.10,868.31,824.83,836.83,826.76,821.62,750.48,783.71,783.59,777.70,699.90,705.91,692.18,690.97,658.42,631.65,634.53,607.68,609.95,566.82,546.94,578.14,581.82,557.46,504.35
475.58,453.74,490.72,482.07,532.15,542.84,575.29,542.63,592.29,584.34,589.24,607.99,648.71,625.59,640.05,613.75,665.45,686.93,679.56,687.73,683.83,722.01,774.85,729.38,787.25,801.35,844.96,828.65,838.77,838.66,842.76,871.04,890.03,879.34,912.44,954.75,908.79,919.44,925.51,939.73,971.04,957.65,968.84,969.04,992.63,981.44,975.49,1017.33,1056.20,1018.93,1011.92,1078.98,1049.42,1075.18,1049.44,1071.92,1107.42,1089.70,1097.65,1072.75,1126.05,1102.45,1148.51,1138.21,1148.15,1166.08,1166.59,1202.07,1207.70,1161.14,1191.25,1220.78,1194.80,1192.10,1218.29,1241.44,1172.91,1242.59,1240.16,1309.71,1316.63,1314.94,1322.88,1343.39,1324.23,1381.01,1369.60,1397.86,1408.76,1413.55,1420.64,1430.51,1435.62,1457.43,1462.50,1458.89,1490.71,1493.58,1521.15,1469.23,1514.09,1506.22,1517.10,1544.74,1510.23,1546.32,1548.25,1529.89,1556.53,1539.85,1599.97,1580.22,1556.91,1545.54,1562.10,1564.47,1550.57,1520.82,1531.88,1531.92,1529.80,1523.28,1524.07,1528.18,1512.97,1495.42,1448.90,1487.81,1470.11,1437.93,1432.63,1422.07,1400.48,1362.54,1363.25,1355.37,1321.92,1326.69,1359.36,1333.77,1292.09,1285.17,1310.91,1297.80,1262.49,1271.97,1220.55,1227.81,1181.19,1190.82,1186.11,1139.30,1172.32,1163.12,1155.60,1169.52,1118.60,1096.41,1053.03,1080.27,1070.92,1019.87,1029.38,1021.53,1018.95,1012.45,971.47,973.00,967.12,938.58,920.23,929.25,897.65,863.35,900.71,837.36,842.91,836.82,824.95,804.58,727.58,757.49,762.49,739.31,736.56,731.52,705.92,665.85,654.27,682.24,630.59,616.82,613.50,612.65,554.53,547.34,509.97,521.00,523.26,489.74
486.34,466.31,474.90,482.94,475.91,514.50,536.73,540.50,560.81,556.13,558.01,594.14,614.03,619.56,640.28,664.97,678.07,692.85,708.82,711.57,721.56,765.98,755.36,735.22,727.15,771.72,801.02,819.52,786.97,838.03,857.42,858.00,865.04,864.79,868.76,904.00,910.08,901.81,968.93,897.45,932.36,930.75,962.86,925.03,998.05,1001.28,994.86,991.52,1020.14,1020.35,1040.67,1026.95,1033.45,1066.26,1064.95,1056.33,1074.68,1078.54,1091.72,1115.32,1090.55,1092.34,1118.47,1110.12,1110.61,1156.81,1139.46,1116.26,1179.16,1162.22,1191.50,1210.78,1202.28,1167.37,1178.60,1214.43,1236.96,1272.52,1264.96,1322.27,1251.06,1294.43,1294.34,1319.29,1361.07,1373.82,1350.12,1377.76,1376.29,1361.85,1394.89,1395.58,1415.31,1410.16,1440.65,1453.67,1471.27,1472.60,1507.86,1527.27,1483.05,1517.70,1547.13,1530.66,1530.33,1484.09,1513.20,1519.22,1557.57,1516.81,1530.56,1549.15,1516.14,1535.79,1530.99,1542.62,1534.59,1529.60,1516.02,1472.79,1502.76,1494.14,1500.85,1469.01,1469.75,1461.35,1436.16,1417.47,1437.93,1439.85,1396.31,1393.30,1402.85,1393.18,1367.48,1359.19,1349.47,1340.86,1292.94,1340.37,1295.12,1291.80,1249.52,1248.57,1247.35,1191.26,1196.86,1187.93,1164.42,1179.70,1163.68,1181.24,1117.96,1132.68,1097.99,1068.85,1102.54,1091.77,1076.94,1027.07,1042.54,1040.23,1034.68,1015.49,1009.44,998.63,966.43,961.26,958.14,932.70,935.52,915.57,871.84,844.67,857.36,819.42,830.65,814.66,826.54,796.22,791.18,747.22,772.90,745.39,721.20,661.58,706.29,703.14,652.82,638.13,612.05,574.63,580.94,610.31,583.69,531.70,520.72,560.21,482.43,473.98
439.07,433.20,462.41,475.60,480.97,538.62,501.81,535.45,533.92,560.45,559.38,592.56,610.65,645.41,618.71,675.90,640.40,664.70,717.59,753.10,741.40,715.73,742.89,758.51,763.88,748.78,785.44,782.27,784.49,808.93,832.58,857.23,842.86,856.91,884.92,880.41,896.59,900.29,912.36,896.11,929.33,964.46,948.11,936.72,991.42,984.66,993.77,1001.28,971.86,1015.14,1037.57,1007.87,986.42,1039.76,1040.50,1016.26,1066.66,1072.50,1039.92,1114.42,1099.08,1053.75,1115.51,1122.60,1142.88,1110.02,1147.22,1134.03,1136.01,1138.40,1126.38,1184.20,1177.08,1137.29,1202.96,1234.38,1195.05,1217.11,1250.54,1201.08,1252.29,1280.74,1273.57,1269.91,1282.04,1286.01,1316.83,1361.85,1399.14,1363.73,1389.35,1365.98,1353.58,1442.82,1403.98,1440.02,1438.20,1463.91,1471.63,1466.14,1475.85,1499.30,1473.20,1518.23,1478.03,1498.11,1512.85,1470.66,1533.12,1516.49,1573.74,1549.33,1506.75,1541.18,1520.17,1504.89,1463.40,1463.76,1487.28,1471.60,1479.71,1495.77,1478.16,1438.95,1462.90,1417.17,1403.23,1423.93,1389.87,1382.85,1404.80,1387.05,1355.19,1318.66,1324.81,1366.55,1335.11,1332.22,1296.75,1272.42,1285.31,1280.57,1233.04,1216.07,1187.60,1190.95,1206.79,1169.20,1187.49,1195.93,1144.84,1131.78,1130.85,1096.16,1082.47,1070.84,1048.03,1076.67,1036.45,1056.29,1032.28,1008.83,1013.01,965.41,956.07,973.27,902.33,933.68,932.26,933.62,924.57,878.40,883.05,838.08,831.72,854.24,812.28,802.35,764.47,779.45,771.85,756.90,703.80,733.53,679.00,683.81,637.29,651.34,620.10,616.42,611.81,612.39,596.95,519.63,565.27,541.23,511.37,490.54,492.57,484.23
451.59,452.63,418.73,472.04,471.08,548.73,521.74,548.34,559.22,565.74,564.23,574.70,558.17,614.40,630.49,636.41,653.05,638.80,669.70,675.15,713.90,713.76,712.36,734.03,728.38,754.39,784.23,757.40,794.11,791.45,790.75,865.44,863.77,837.10,853.45,828.78,847.16,866.04,897.33,904.92,922.87,938.65,939.30,920.60,957.04,971.43,958.19,937.68,1006.04,991.75,942.04,1046.33,1002.69,1068.32,1034.31,1029.90,1044.79,1034.09,1056.67,1102.85,1051.91,1087.85,1070.17,1088.67,1139.15,1117.86,1130.09,1124.59,1185.25,1120.68,1116.61,1190.64,1158.20,1183.15,1218.60,1202.26,1248.13,1216.16,1209.38,1186.75,1250.27,1210.11,1272.05,1305.56,1286.92,1302.01,1327.48,1333.52,1354.25,1341.48,1307.55,1386.65,1368.71,1366.03,1400.16,1406.68,1397.11,1395.14,1438.52,1419.98,1446.57,1458.50,1476.56,1505.12,1472.39,1463.37,1508.60,1499.23,1483.76,1486.52,1482.98,1485.61,1479.51,1460.50,1477.91,1509.89,1454.74,1461.28,1443.85,1479.18,1466.37,1417.37,1395.18,1444.95,1392.45,1426.95,1388.34,1405.34,1390.30,1360.35,1342.86,1361.06,1324.57,1349.28,1298.95,1310.96,1284.38,1280.43,1254.35,1252.77,1193.04,1215.91,1208.29,1206.47,1221.64,1169.68,1199.79,1142.17,1125.13,1097.53,1135.27,1112.79,1109.97,1089.60,1074.74,1068.55,1093.85,1029.23,1067.69,1031.50,1009.58,1001.14,913.86,960.20,939.62,982.79,921.16,914.75,901.69,863.65,865.66,880.17,808.07,843.70,806.10,836.68,805.03,753.08,761.39,764.93,735.83,730.78,713.37,716.90,694.10,670.03,656.98,620.57,657.15,672.60,592.31,585.44,590.37,575.89,544.95,507.60,549.31,512.49,489.30,456.58
441.43,416.36,479.94,497.37,494.91,483.81,524.80,544.30,526.51,572.89,577.54,574.40,581.55,601.91,598.82,636.13,654.72,679.48,674.52,688.77,687.85,687.87,708.78,757.83,753.69,760.75,727.74,781.57,759.82,772.18,785.16,803.19,845.69,843.74,830.33,847.38,878.56,891.96,889.89,873.30,896.84,961.36,898.01,938.03,981.09,941.19,991.17,948.44,930.26,965.61,969.38,958.37,990.59,1025.85,1001.18,1012.55,1054.45,1019.05,1053.37,1013.85,1035.72,1057.88,1093.51,1058.34,1065.48,1096.92,1107.76,1086.18,1104.40,1144.68,1107.65,1146.56,1138.06,1185.34,1177.97,1193.25,1174.36,1211.27,1220.60,1225.03,1219.17,1238.39,1208.53,1291.31,1254.67,1270.72,1261.76,1312.25,1320.02,1314.08,1283.74,1326.49,1360.02,1365.71,1369.34,1371.05,1356.87,1416.24,1376.24,1408.56,1399.05,1446.17,1443.92,1430.51,1456.21,1416.64,1448.30,1431.51,1475.12,1463.40,1469.49,1445.28,1470.36,1431.54,1432.10,1445.07,1426.20,1454.74,1426.08,1408.32,1399.52,1430.89,1358.74,1381.57,1421.54,1377.84,1389.89,1374.57,1352.30,1312.73,1308.90,1297.81,1323.34,1315.92,1273.62,1278.14,1268.27,1257.97,1229.39,1265.55,1234.45,1210.44,1186.66,1168.41,1181.09,1151.70,1151.91,1099.32,1114.80,1111.31,1120.96,1071.29,1048.15,1074.90,1052.86,1007.84,996.96,1005.57,1004.92,1022.43,961.04,981.41,919.34,953.64,964.36,924.79,896.25,921.84,891.66,875.16,839.04,853.88,820.03,826.96,808.62,816.15,769.66,764.81,770.28,736.03,726.66,705.22,696.26,699.07,708.43,624.15,618.38,626.78,616.51,597.06,576.24,548.57,546.94,561.48,533.03,530.77,479.36,518.58,464.83,472.07
433.87,437.77,469.53,485.26,539.47,511.01,523.28,546.29,546.66,547.90,567.84,591.06,614.41,568.97,573.93,651.19,620.71,615.85,626.24,709.49,703.07,681.56,694.21,722.07,749.70,738.03,739.43,788.92,776.61,784.02,810.24,766.03,828.42,837.14,811.14,809.49,846.44,870.60,881.66,918.88,897.12,873.94,905.19,892.35,922.70,962.25,950.91,934.81,968.45,948.30,915.74,953.39,994.20,1007.38,1033.13,1012.41,1039.31,1031.75,1044.67,1054.77,1049.32,1067.98,1039.48,1011.98,1080.70,1082.47,1064.88,1064.70,1100.29,1119.90,1124.03,1101.49,1114.41,1152.35,1149.24,1178.02,1159.57,1190.23,1184.24,1180.33,1223.26,1194.90,1226.41,1238.75,1243.14,1275.76,1277.82,1285.85,1288.52,1334.56,1336.91,1336.03,1342.57,1325.03,1345.43,1368.15,1385.14,1390.24,1391.88,1427.67,1391.84,1421.17,1424.53,1420.79,1426.10,1429.64,1409.55,1434.33,1443.18,1435.86,1393.07,1397.98,1412.41,1424.91,1409.53,1434.73,1441.98,1440.48,1415.58,1424.95,1385.86,1387.37,1359.82,1399.55,1406.52,1351.59,1306.11,1320.98,1317.33,1293.74,1289.31,1303.41,1301.70,1236.22,1255.70,1255.79,1222.28,1236.82,1218.14,1199.87,1179.85,1190.88,1158.39,1127.24,1150.59,1113.61,1093.72,1117.51,1099.94,1074.17,1084.39,1076.61,1061.27,1048.88,1001.04,1047.35,1020.97,979.11,986.18,978.25,962.12,986.95,900.33,897.79,869.36,904.89,902.06,886.22,860.93,862.49,835.98,844.19,838.89,785.39,785.44,775.76,793.78,735.90,760.93,696.38,737.21,715.95,682.29,690.17,648.20,626.09,664.97,606.28,616.89,611.77,591.96,574.08,561.98,555.85,527.44,506.74,466.67,487.03,487.96,432.21
427.75,452.86,486.72,445.50,496.81,486.11,492.17,499.69,517.38,552.92,550.84,582.12,557.82,606.59,613.67,587.12,659.63,648.45,669.02,688.80,696.90,686.75,715.38,676.16,731.57,769.53,732.00,775.08,802.93,791.77,808.84,767.10,789.76,846.83,847.03,847.15,841.14,861.14,899.03,870.87,895.34,903.08,884.40,893.86,943.93,932.40,914.84,929.53,923.22,971.33,951.91,959.04,987.40,943.70,983.20,990.33,991.42,992.71,996.08,1022.54,1003.33,1033.45,1025.93,1034.11,1054.73,1047.91,1090.40,1069.60,1100.83,1072.31,1079.70,1070.14,1101.76,1115.34,1130.12,1151.30,1158.82,1178.19,1147.06,1174.91,1163.94,1202.01,1239.72,1189.70,1237.46,1254.81,1226.13,1262.85,1257.03,1271.82,1276.30,1289.42,1326.61,1311.27,1309.90,1332.10,1296.72,1330.88,1379.84,1359.14,1359.19,1378.38,1395.27,1412.15,1380.99,1385.24,1392.49,1420.02,1402.38,1445.68,1399.56,1437.78,1383.68,1372.08,1395.51,1417.31,1381.32,1374.22,1402.12,1390.20,1354.16,1346.35,1372.79,1315.93,1362.05,1345.77,1277.39,1314.03,1264.53,1270.08,1273.94,1248.21,1307.29,1269.38,1268.46,1227.18,1219.36,1239.04,1204.70,1196.81,1154.84,1143.22,1155.21,1145.89,1106.94,1122.50,1079.36,1092.55,1052.02,1095.84,1051.58,1032.47,1011.97,998.60,1020.72,1020.62,1007.16,1005.55,1001.09,973.77,933.00,934.86,874.70,920.90,899.39,916.50,857.85,871.08,828.68,834.44,791.74,839.29,820.85,777.89,780.04,762.93,737.19,739.09,714.88,730.37,693.49,732.40,669.84,660.41,655.42,648.26,619.71,614.88,594.99,562.35,543.55,565.10,568.10,491.81,482.47,469.08,500.34,488.98,439.35,490.17
420.46,468.72,468.10,444.78,467.66,470.70,473.44,507.47,500.80,533.52,587.92,575.43,562.57,573.11,590.00,651.52,600.34,634.00,655.19,681.94,662.61,661.53,697.97,729.74,709.11,708.74,738.55,714.52,753.10,791.34,795.40,784.97,830.79,845.37,829.83,796.38,797.13,871.21,857.05,893.29,842.05,873.66,905.36,877.90,920.34,904.99,915.25,898.13,933.81,979.49,950.15,933.21,983.53,946.89,1002.99,949.48,986.81,1018.25,976.77,1002.16,1030.07,968.30,1038.50,1024.84,1062.18,1023.64,1019.43,1043.41,1050.26,1064.84,1067.19,1044.18,1090.40,1105.09,1104.92,1123.05,1127.72,1107.28,1137.97,1155.49,1157.85,1142.26,1206.21,1172.04,1176.44,1211.96,1214.71,1242.92,1258.17,1264.89,1260.09,1280.70,1247.75,1309.94,1288.80,1344.84,1336.15,1317.54,1329.34,1359.58,1297.19,1345.18,1387.86,1375.60,1346.23,1372.94,1350.14,1365.22,1380.44,1384.99,1389.74,1399.50,1349.94,1372.61,1352.77,1358.79,1348.02,1368.82,1375.01,1370.63,1320.36,1333.44,1306.18,1297.97,1300.07,1311.77,1306.49,1300.05,1289.35,1250.78,1281.37,1263.52,1228.74,1218.85,1202.40,1178.79,1206.91,1198.90,1152.74,1135.37,1129.99,1139.60,1098.43,1137.29,1124.75,1100.55,1096.94,1070.62,1067.46,1020.88,1063.44,1014.64,1010.58,1051.68,986.32,994.29,978.56,930.37,925.77,975.20,934.75,911.48,889.70,895.37,885.77,870.44,875.66,825.25,810.81,839.83,849.30,811.89,808.90,769.27,763.83,751.21,732.62,749.44,730.94,687.97,650.31,669.14,634.46,645.11,610.15,643.79,619.32,605.78,600.95,574.26,564.31,569.02,524.63,526.45,480.37,490.17,521.00,479.42,448.82,443.36
423.44,440.15,439.27,468.96,481.55,483.00,497.64,513.66,508.33,540.61,558.54,584.25,573.32,567.80,588.77,579.82,629.02,584.99,658.29,672.23,602.13,697.54,703.75,688.44,681.30,699.13,711.30,763.21,738.17,775.34,764.65,777.96,754.97,772.80,830.76,810.76,828.66,867.37,837.09,844.17,880.01,863.98,877.81,898.85,886.26,909.20,898.17,927.02,922.59,916.31,928.85,884.93,964.06,921.39,931.34,950.16,929.23,980.61,984.64,973.87,976.26,982.22,1014.72,976.97,1007.18,991.40,1044.11,1028.90,1053.59,1074.84,1082.54,1044.31,1078.66,1102.80,1102.38,1112.63,1069.52,1127.44,1106.77,1144.89,1153.57,1161.76,1157.12,1195.11,1188.54,1194.35,1178.84,1215.05,1256.27,1198.38,1250.17,1261.94,1288.40,1277.26,1271.55,1288.10,1282.27,1319.64,1271.49,1299.49,1324.48,1344.78,1326.37,1315.71,1331.28,1331.69,1335.52,1335.50,1337.13,1312.46,1353.08,1360.19,1375.62,1361.16,1357.78,1344.51,1299.71,1336.33,1328.14,1341.09,1325.89,1305.47,1340.27,1310.64,1292.60,1286.64,1270.11,1260.22,1207.18,1222.69,1220.32,1230.07,1177.75,1189.91,1176.74,1181.34,1177.23,1144.34,1134.79,1121.63,1116.36,1112.04,1128.26,1070.59,1114.75,1043.95,1076.64,1036.95,1017.19,1050.71,1014.99,1003.22,985.81,968.74,965.85,893.86,910.34,944.25,949.05,941.62,884.14,896.03,837.15,862.80,875.06,846.93,829.28,824.22,838.64,796.51,791.21,808.41,761.65,721.59,769.72,750.61,673.84,703.36,693.24,708.70,668.62,659.75,647.83,621.98,644.62,590.16,583.60,580.48,541.12,590.47,542.43,546.25,497.95,518.71,507.85,498.23,505.09,443.49,438.68,413.38
417.52,444.18,454.64,486.86,475.52,477.45,467.37,518.32,509.67,542.40,527.94,572.24,567.73,591.58,591.14,576.54,599.30,592.48,633.18,611.52,657.84,590.63,690.16,662.69,676.35,733.38,722.70,743.42,716.41,765.61,753.30,767.89,804.66,760.72,811.17,809.36,805.95,796.69,822.27,818.38,866.30,852.03,844.11,836.19,862.81,903.77,888.11,888.96,933.10,897.28,895.74,926.23,932.69,918.65,920.47,971.35,939.71,925.28,964.13,984.13,968.43,989.04,963.47,1003.18,977.80,1009.41,1025.18,1018.46,998.58,1006.41,1069.23,1029.31,1067.44,1062.16,1047.55,1065.00,1117.85,1162.03,1094.44,1101.76,1085.57,1094.33,1119.28,1136.72,1154.38,1178.01,1177.97,1197.02,1179.91,1200.00,1203.27,1194.21,1188.88,1223.59,1195.71,1230.75,1272.07,1272.17,1276.01,1305.77,1273.72,1307.56,1282.89,1309.14,1310.66,1315.15,1306.06,1322.35,1325.44,1289.77,1335.58,1293.48,1299.58,1320.25,1325.01,1314.47,1312.98,1279.54,1287.02,1251.16,1267.92,1253.09,1273.33,1312.87,1273.22,1204.98,1211.03,1206.57,1188.30,1208.33,1208.89,1168.57,1179.88,1178.50,1177.68,1156.30,1149.17,1131.12,1100.82,1094.38,1072.99,1118.56,1048.32,1085.87,1026.77,1060.44,1053.68,1046.45,991.77,1005.08,979.01,962.53,970.38,975.04,936.13,943.88,908.40,894.94,898.55,888.96,896.79,847.56,904.87,814.92,844.35,823.05,804.69,802.99,808.71,800.52,768.25,767.80,723.04,734.36,734.26,668.97,704.42,687.54,704.34,670.25,664.41,637.23,643.09,629.44,579.77,599.80,604.87,588.54,557.03,550.55,550.05,496.64,516.59,455.42,499.87,462.78,456.67,435.30,433.69,427.83
429.99,452.15,438.46,415.66,486.47,442.42,474.96,485.17,506.80,492.89,503.51,540.89,536.90,591.29,564.80,566.65,631.98,619.18,675.28,593.55,647.09,663.48,665.03,667.80,710.37,705.06,672.07,698.42,702.32,732.80,763.64,746.33,757.93,752.31,795.82,813.76,796.78,837.17,802.64,793.35,844.97,834.38,831.91,852.14,825.82,829.31,872.73,886.04,911.57,907.66,908.75,927.48,917.81,907.00,937.95,942.99,931.07,912.96,907.00,965.30,963.81,972.45,983.56,953.97,940.48,994.51,1014.44,1003.95,973.75,1015.02,994.60,993.30,1031.22,1042.03,1044.40,1062.90,1046.28,1071.92,1068.79,1081.91,1100.90,1125.45,1118.94,1134.50,1131.23,1149.83,1169.83,1195.81,1191.48,1175.14,1208.01,1204.83,1190.28,1222.05,1196.35,1238.06,1269.35,1257.95,1272.24,1247.13,1270.26,1280.06,1264.95,1289.14,1288.43,1296.51,1264.70,1312.90,1297.84,1287.29,1287.95,1288.60,1271.71,1310.35,1303.48,1301.86,1307.95,1277.34,1235.72,1276.15,1269.63,1282.60,1266.42,1240.27,1227.11,1242.08,1160.56,1209.82,1214.94,1184.37,1169.66,1173.51,1184.73,1156.72,1123.97,1151.56,1145.06,1090.21,1151.79,1085.23,1093.61,1078.56,1039.42,1033.71,1033.47,984.09,1027.31,962.40,990.04,965.77,980.25,914.09,914.43,925.25,937.09,920.66,926.76,897.42,884.40,852.80,859.21,852.71,801.39,814.02,830.38,813.94,794.47,776.51,742.86,723.20,749.50,774.26,734.00,742.40,687.07,704.83,673.58,661.23,679.32,650.31,613.24,631.09,602.93,576.45,573.48,622.32,593.65,517.09,541.58,531.02,516.00,496.05,512.31,504.31,494.57,468.39,462.23,431.52,395.32,383.34
393.21,417.28,406.75,421.01,447.28,483.42,484.15,471.54,501.10,484.97,505.63,501.09,554.12,551.15,564.87,595.30,570.32,610.60,651.88,603.35,602.44,619.12,662.51,699.99,709.35,702.17,712.74,714.16,728.92,729.87,717.00,776.28,777.56,743.96,780.94,805.48,792.72,788.15,828.57,812.62,802.32,799.06,770.45,875.38,825.87,868.42,837.12,865.12,876.90,849.13,898.96,881.66,902.41,926.10,917.41,906.27,952.58,918.33,926.60,927.00,911.33,914.74,936.05,932.61,953.18,981.20,962.56,981.34,973.16,1040.67,1026.58,998.28,1015.66,990.57,1020.43,1020.23,1054.79,1029.19,1088.98,1062.70,1054.95,1081.44,1104.11,1108.45,1109.91,1133.12,1140.72,1149.63,1136.47,1145.04,1155.17,1157.93,1178.26,1184.16,1225.27,1189.70,1187.39,1227.02,1222.14,1213.19,1248.32,1232.39,1273.25,1228.04,1239.16,1256.49,1283.68,1244.24,1267.42,1237.37,1279.12,1247.27,1271.57,1270.88,1218.82,1256.39,1238.57,1254.56,1222.47,1223.15,1253.07,1245.35,1196.43,1245.18,1150.15,1198.25,1160.09,1184.71,1163.27,1139.10,1135.42,1124.95,1132.54,1140.68,1150.41,1097.74,1096.97,1104.49,1061.49,1044.47,1088.74,1035.80,1033.36,986.55,997.78,1035.64,996.81,976.65,994.80,923.74,938.08,981.63,924.90,914.54,929.05,920.23,859.01,883.38,899.70,841.47,836.61,834.33,837.30,784.48,740.35,796.44,804.92,764.77,748.16,746.31,770.82,714.73,728.52,683.05,672.96,700.85,705.44,679.27,609.10,630.39,632.13,617.06,565.94,566.81,565.11,568.15,519.16,558.18,532.64,501.96,515.03,470.72,486.87,440.33,431.73,444.29,427.66,438.36,419.08,450.34
400.17,350.32,386.54,414.27,516.91,459.55,493.56,502.65,468.30,468.90,528.73,482.58,557.61,546.74,572.37,577.03,588.94,594.65,608.86,614.71,596.72,626.70,688.19,661.15,687.65,654.92,664.20,669.61,676.34,679.66,725.73,722.73,755.95,740.64,707.01,771.99,730.37,782.93,770.71,798.09,771.69,823.09,815.06,814.04,793.49,869.90,821.72,851.15,832.81,933.13,866.25,856.56,886.48,894.80,893.07,884.05,904.65,898.03,905.93,896.04,887.83,933.76,940.07,959.41,940.07,940.50,922.46,955.83,969.93,932.58,996.77,967.72,984.79,1007.58,1002.58,1038.06,1030.01,1022.08,970.42,1060.67,1025.23,1074.06,1075.13,1069.76,1101.28,1101.17,1105.87,1073.53,1117.18,1099.99,1111.31,1134.25,1178.83,1164.77,1173.76,1187.95,1162.16,1154.90,1157.77,1203.48,1224.19,1227.84,1197.61,1245.48,1262.84,1237.19,1257.27,1246.89,1226.14,1218.15,1199.28,1222.13,1225.18,1223.90,1223.62,1177.10,1235.09,1233.38,1218.33,1182.44,1207.59,1194.65,1197.19,1211.81,1169.91,1169.44,1140.51,1167.91,1154.94,1136.36,1101.89,1100.01,1067.60,1080.73,1099.09,1082.98,1068.33,1084.83,1051.19,1023.48,1010.91,1010.16,995.66,1013.60,992.86,967.94,958.62,968.26,964.38,897.28,920.73,916.01,915.18,896.53,892.48,869.66,848.35,870.21,860.89,847.63,841.20,795.15,794.38,816.83,791.42,775.24,758.84,778.95,707.83,738.71,721.02,686.77,733.55,636.73,682.23,679.57,638.63,652.74,631.71,644.91,684.32,609.67,603.78,560.96,573.49,550.44,562.17,506.75,502.47,536.21,505.50,516.48,486.02,477.72,450.16,441.36,453.48,420.35,436.00,399.34
377.00,385.80,418.48,450.98,430.16,468.94,467.19,488.18,481.16,501.50,527.50,519.24,519.91,504.83,562.74,547.14,562.75,562.25,589.48,646.35,621.64,611.80,625.51,615.68,631.53,637.88,678.45,691.20,692.87,707.59,693.58,694.47,702.69,709.97,749.10,790.00,736.40,757.94,776.08,773.51,792.64,781.20,785.65,802.00,818.41,843.61,831.43,824.66,852.00,860.95,840.34,848.86,848.52,878.70,868.93,844.46,885.79,912.54,919.20,883.34,884.12,941.18,939.79,923.11,884.91,912.53,908.39,972.25,911.36,983.96,951.95,936.45,986.64,986.17,955.10,986.95,1022.16,993.81,1043.12,1002.30,992.57,1033.86,1011.80,1051.66,1057.48,1050.48,1111.53,1082.18,1107.82,1117.33,1142.10,1090.70,1087.60,1164.90,1149.49,1147.58,1149.29,1152.33,1181.99,1141.73,1185.57,1201.63,1200.37,1188.08,1192.95,1221.66,1209.98,1235.27,1166.56,1220.21,1185.91,1200.15,1228.01,1178.73,1238.80,1215.74,1201.80,1167.61,1178.18,1169.62,1146.67,1187.26,1150.94,1148.74,1142.60,1133.31,1140.37,1109.18,1133.60,1092.66,1095.15,1060.53,1098.87,1094.58,1072.89,1052.39,1038.58,998.32,992.67,1024.95,996.48,963.05,952.27,983.22,978.16,920.18,944.09,939.03,909.84,936.57,895.16,858.03,878.79,900.38,856.46,832.78,856.63,839.58,824.68,824.60,791.52,783.63,800.42,756.74,798.53,780.93,723.53,765.94,729.42,743.97,708.78,692.35,679.97,626.25,683.37,640.21,663.00,666.68,610.99,599.09,621.21,580.89,605.73,554.67,586.34,540.51,542.26,544.32,523.93,524.13,462.63,472.66,471.15,443.70,467.59,427.16,411.42,434.86,384.58,375.09
405.77,432.89,419.72,394.70,451.29,436.35,481.25,461.89,503.01,482.43,487.65,473.68,509.42,536.68,545.62,566.26,589.24,575.18,586.12,617.08,609.39,596.13,613.85,591.26,624.55,618.75,668.70,694.87,660.62,669.99,715.38,695.78,718.03,735.68,714.39,722.33,733.35,719.59,767.41,776.52,772.75,804.84,778.74,802.47,805.83,785.99,830.78,815.82,838.21,798.04,831.49,825.23,822.48,872.70,853.36,824.81,849.28,882.87,851.89,854.73,875.80,893.08,874.13,901.60,899.65,907.35,861.51,915.43,915.74,934.35,919.41,931.17,955.51,980.20,931.40,974.93,996.01,992.62,1009.05,982.55,1025.72,994.18,1017.57,1014.31,1023.09,1005.92,1008.96,1079.99,1028.50,1077.46,1054.36,1071.15,1109.43,1106.43,1107.87,1140.29,1118.31,1155.09,1115.14,1118.40,1144.69,1152.34,1139.47,1155.00,1191.19,1158.85,1130.32,1135.94,1213.72,1201.62,1163.92,1188.31,1176.19,1194.70,1145.61,1143.36,1187.25,1127.11,1153.98,1146.80,1158.03,1139.34,1127.68,1116.09,1096.82,1106.06,1125.03,1088.08,1113.72,1091.78,1078.04,1056.44,1038.11,1075.18,1048.17,1020.17,1047.51,1016.63,966.11,976.43,989.92,995.94,1003.43,947.14,949.38,915.28,900.24,874.77,906.81,914.85,895.65,872.47,885.80,910.97,825.96,784.76,830.72,836.16,774.19,812.41,779.61,783.65,749.08,738.35,726.33,752.20,716.73,724.94,710.40,676.42,691.70,685.01,691.55,690.15,629.79,647.12,585.46,636.56,631.16,545.40,581.62,559.99,560.58,546.06,545.41,555.42,518.78,494.67,499.83,488.09,480.80,459.37,468.61,476.69,414.94,438.90,438.70,400.51,424.00,387.60
368.00,375.28,426.66,435.12,462.89,455.39,450.38,472.43,474.63,476.95,483.00,469.89,499.83,524.55,481.04,535.02,573.81,592.26,564.74,573.79,580.37,593.17,636.63,655.67,598.48,625.03,612.86,658.26,657.60,682.92,697.21,703.01,666.90,706.97,681.06,757.01,722.31,709.02,732.23,753.86,770.78,788.37,769.70,767.69,793.84,798.91,793.61,812.78,789.61,806.46,771.29,844.67,811.89,854.41,818.10,841.95,841.66,833.17,859.44,880.05,895.00,878.79,844.52,845.47,901.31,863.63,901.06,896.70,925.81,915.19,910.08,957.79,939.06,939.88,921.50,918.75,943.20,925.28,955.84,985.47,996.40,977.36,1050.47,1024.86,1006.51,1037.71,1011.10,1035.57,1031.07,1021.78,1064.32,1061.09,1069.97,1075.29,1064.89,1121.39,1101.10,1096.99,1082.01,1141.75,1137.13,1123.49,1102.01,1164.63,1127.42,1124.04,1138.71,1148.89,1139.15,1075.35,1148.10,1161.01,1123.63,1170.99,1155.06,1144.17,1111.22,1133.28,1130.50,1116.99,1131.22,1100.51,1096.22,1081.86,1079.34,1078.21,1070.03,1061.39,1076.50,1079.85,1015.74,1062.36,1037.51,997.27,999.53,1002.72,954.78,976.92,979.90,945.22,921.20,945.46,976.35,908.62,899.86,900.33,926.50,852.85,892.10,858.13,850.72,829.09,835.22,811.49,811.21,763.68,769.25,801.60,811.04,841.31,786.10,748.19,709.66,750.94,701.87,705.51,730.06,708.86,674.98,649.96,678.81,671.69,685.41,595.78,638.23,644.37,607.75,574.29,577.73,586.94,566.36,572.04,581.38,537.60,559.74,522.77,521.59,502.18,501.52,494.71,486.49,463.46,386.55,454.87,393.39,410.55,364.81,436.62,401.08,376.38
413.72,405.95,407.82,423.30,417.86,410.85,465.01,454.54,430.95,486.43,487.24,530.53,511.97,493.00,490.78,561.77,545.03,538.71,551.28,601.17,594.06,615.87,608.01,595.42,656.78,621.98,654.50,668.54,655.26,640.98,657.63,692.50,697.23,719.98,723.99,689.20,744.01,701.31,740.26,783.14,747.13,711.32,746.22,801.92,759.82,795.89,755.47,772.62,780.42,828.64,788.30,761.41,851.38,812.85,825.90,785.14,826.87,826.52,811.24,848.37,805.35,824.53,872.80,838.69,848.07,864.56,860.26,886.57,881.46,853.13,874.05,877.52,890.91,908.37,918.39,871.20,945.52,929.83,916.02,964.40,910.31,928.10,1009.50,977.24,967.04,991.48,993.24,1005.15,1021.76,1015.52,1033.99,1031.05,1024.98,1026.28,1081.59,1074.74,1088.84,1074.19,1084.31,1081.57,1113.23,1087.72,1079.04,1112.78,1102.48,1113.18,1124.56,1100.38,1108.67,1107.39,1139.33,1113.33,1115.07,1087.17,1122.74,1113.98,1085.49,1136.94,1101.02,1077.14,1084.45,1071.61,1103.93,1085.42,1069.19,1087.48,1025.12,1053.86,1041.51,1017.96,1009.85,1024.47,1014.49,960.41,1016.44,994.13,956.75,937.61,966.65,945.36,940.73,928.79,932.65,916.46,879.68,869.54,879.56,909.32,851.64,853.03,854.83,819.74,835.27,810.83,826.78,774.13,830.55,769.26,777.18,758.07,727.61,757.03,726.23,733.16,697.63,699.59,689.90,697.75,683.80,664.97,651.90,656.34,644.68,633.92,661.30,623.46,641.36,591.88,582.65,563.81,570.20,547.86,535.18,496.67,554.10,507.20,534.43,493.06,497.92,476.57,473.43,435.04,468.96,428.11,444.13,386.62,391.01,403.87,383.56,386.45
384.22,426.36,410.40,400.78,411.44,453.28,408.55,460.22,436.64,491.05,470.10,499.12,499.16,480.44,530.68,513.09,553.11,526.50,560.75,565.96,562.29,610.97,592.96,592.64,615.68,589.09,675.57,613.01,653.78,651.82,681.89,669.35,660.37,643.14,651.68,689.33,728.12,673.73,750.43,741.29,698.51,709.56,717.18,748.31,746.50,750.91,747.72,766.27,784.23,769.59,763.47,801.05,781.18,800.99,792.24,820.19,827.37,830.89,800.09,804.11,837.09,822.62,827.58,818.79,865.39,862.62,844.14,838.45,842.53,864.09,874.41,854.83,852.75,884.97,906.56,896.81,896.57,885.34,901.80,938.73,902.93,970.39,943.70,917.43,966.45,972.67,962.24,997.10,973.23,1005.54,999.40,1001.52,1041.01,1040.62,1005.41,1041.54,1077.93,1073.27,1033.23,1088.51,1079.99,1044.82,1073.92,1082.85,1054.82,1093.06,1129.62,1109.89,1086.88,1078.53,1090.71,1064.09,1072.96,1041.67,1087.46,1069.38,1085.35,1071.76,1045.05,1064.73,1041.48,1083.47,1027.73,1029.06,1011.73,1003.22,1018.76,985.92,999.51,1004.10,979.06,935.35,997.83,968.10,959.85,941.08,953.31,947.17,940.46,916.35,874.72,901.60,890.11,865.08,851.32,869.54,848.52,833.62,866.28,837.70,824.43,831.60,805.35,776.19,774.02,788.00,777.41,765.40,725.27,755.83,729.78,734.58,697.45,744.82,701.85,679.92,692.52,688.04,674.79,633.39,667.26,628.58,626.17,573.27,599.06,589.78,598.99,570.21,538.97,566.91,547.61,528.60,535.43,488.56,527.01,501.37,490.08,504.88,465.49,471.77,454.40,511.72,447.60,405.46,453.83,430.18,400.81,381.80,354.73,380.65
361.20,366.61,409.28,434.27,403.48,438.78,436.58,449.19,435.31,457.08,449.03,456.11,500.48,489.13,490.76,494.24,497.45,497.80,548.25,502.49,573.36,581.99,579.37,591.35,592.53,610.97,618.81,648.49,660.88,667.86,629.29,667.65,669.70,653.51,655.49,672.24,664.94,664.58,708.35,704.92,710.51,734.02,716.95,742.69,716.38,721.18,741.16,787.98,775.82,776.51,731.46,766.07,783.78,813.18,741.87,794.20,804.88,796.62,764.58,800.66,808.21,807.28,794.17,795.90,825.49,807.23,812.19,827.08,837.81,860.27,820.61,823.81,847.41,824.55,877.95,832.17,892.18,906.37,895.68,859.79,905.65,894.30,893.02,935.57,946.31,963.73,939.41,955.64,992.59,1008.23,994.91,973.18,987.08,989.96,1014.05,989.73,1018.49,1024.25,1030.76,1007.66,1037.71,1072.42,1031.75,1049.51,1010.44,1054.84,1056.13,1055.65,1068.94,1049.25,1078.33,1036.60,1082.07,1055.89,1048.13,1018.35,1021.73,1047.41,1022.07,1051.89,1032.90,993.42,1031.53,1007.11,1003.16,1018.38,962.74,961.03,982.69,934.66,948.78,972.61,942.86,909.42,932.47,912.30,898.00,974.78,906.72,881.11,896.30,864.06,851.09,859.02,854.81,854.78,856.40,843.36,828.46,822.26,818.55,800.85,746.77,780.27,789.71,737.98,738.07,736.58,733.45,710.40,714.48,715.42,656.75,690.21,672.79,638.00,675.07,661.62,650.25,650.66,636.33,606.55,627.11,621.83,573.46,603.97,571.81,580.81,562.62,547.11,552.26,525.70,544.82,538.92,493.87,492.23,478.84,484.55,493.97,425.14,420.85,438.29,434.43,402.67,415.92,388.34,385.13,410.41,369.17,359.89
371.89,400.38,387.00,386.07,418.21,432.29,448.35,434.17,453.81,469.51,466.72,498.81,494.74,528.61,518.49,470.71,510.30,494.85,523.27,537.36,570.79,553.13,598.18,565.18,580.89,569.82,631.32,641.65,614.94,595.31,627.92,643.73,633.22,699.59,695.56,630.38,648.41,686.63,661.80,692.52,694.53,698.82,725.13,745.89,722.50,695.04,726.73,716.62,772.48,750.72,749.04,758.03,748.24,777.96,745.36,779.80,796.23,751.90,778.72,784.10,758.11,756.09,769.08,790.36,803.86,792.27,842.56,828.87,821.93,808.93,823.75,849.34,850.83,855.89,837.07,838.29,825.96,871.00,836.13,872.41,870.67,890.00,915.45,925.90,919.63,897.12,918.81,908.65,919.90,949.46,927.08,944.15,938.39,979.34,965.18,934.07,1016.83,1009.92,954.55,1014.42,1034.70,1004.66,1015.12,1009.09,1028.74,1041.43,998.90,1010.08,1027.21,1031.86,1033.79,1021.26,1006.44,1042.26,996.10,1008.18,1015.41,1021.33,1001.92,1018.53,1023.79,981.23,996.08,987.39,969.56,931.87,970.43,965.73,971.09,935.34,921.22,908.64,859.22,903.23,958.70,920.77,867.44,868.88,860.61,890.85,899.22,848.37,843.72,840.73,821.92,819.81,807.10,807.70,750.13,772.64,750.65,780.23,742.86,719.43,707.13,744.07,708.69,716.69,743.30,711.32,685.78,664.62,688.94,669.75,675.96,608.73,671.13,606.06,622.52,651.84,571.15,605.82,593.74,590.28,589.55,574.24,538.60,558.76,547.81,538.28,572.47,548.72,549.71,511.20,531.14,469.41,470.43,457.07,449.81,451.61,445.91,441.52,458.87,384.58,382.10,348.53,371.74,370.95,357.17,339.73
365.50,365.04,364.18,394.02,388.69,432.45,415.23,420.68,442.07,405.87,479.38,479.88,457.36,459.59,470.91,471.76,474.78,488.54,473.03,527.17,540.07,576.66,578.89,552.45,570.02,604.74,581.25,601.03,592.74,612.71,620.51,618.60,653.47,621.27,647.09,686.51,662.96,646.52,674.95,722.02,679.38,699.53,688.67,698.83,696.37,682.05,714.23,686.52,708.84,757.33,721.58,708.38,735.42,723.23,740.12,718.03,760.74,751.22,732.27,763.10,798.23,747.28,782.07,779.07,782.65,796.56,777.09,789.86,793.10,778.47,809.35,797.67,846.43,804.72,793.69,847.88,816.13,812.44,850.31,875.20,869.42,849.49,869.85,867.99,913.49,878.12,895.48,903.53,883.58,909.54,916.41,953.94,936.65,931.38,942.07,949.46,955.62,980.27,986.35,951.69,997.25,994.94,982.50,957.30,993.84,984.86,1004.94,1008.21,1022.61,975.47,1039.44,1014.07,1009.46,1032.02,998.09,1009.98,989.83,999.92,1002.59,996.37,940.41,957.45,983.89,964.82,947.97,952.93,914.27,945.40,930.22,917.43,904.92,905.75,888.15,879.57,914.15,838.90,831.52,870.65,822.78,799.25,851.75,848.81,789.62,772.07,775.81,778.44,822.99,768.43,786.01,776.18,780.60,734.06,738.83,727.13,734.77,740.83,752.59,693.72,696.87,703.88,691.26,705.80,661.78,648.41,676.27,647.15,644.20,624.21,636.42,592.74,593.00,541.27,573.69,596.83,571.04,543.48,582.35,548.27,571.07,545.98,524.21,548.71,496.04,473.12,518.46,490.00,497.19,478.33,484.96,433.23,431.07,422.24,413.91,377.69,403.74,407.76,369.84,356.73,363.88,373.95
336.60,413.64,349.81,373.27,416.28,421.88,429.06,406.67,419.38,421.06,440.64,463.52,447.42,438.40,505.40,486.99,514.05,501.31,526.66,570.53,509.24,524.52,529.91,597.72,562.86,588.40,525.06,592.56,584.83,626.64,618.69,603.61,649.92,657.91,660.57,651.52,636.36,652.02,644.36,662.26,650.93,664.25,715.19,683.07,672.64,663.48,687.62,708.53,700.25,700.23,713.52,716.51,726.28,730.30,717.33,719.74,725.91,740.47,755.07,729.30,736.18,726.65,716.54,725.28,733.63,744.15,770.53,743.89,769.78,790.43,761.46,772.75,760.87,773.07,824.52,812.38,850.59,798.33,848.87,809.89,820.35,890.84,825.83,880.50,854.44,839.92,839.25,876.40,858.26,881.21,855.38,906.82,875.03,910.69,890.06,947.90,886.61,928.33,950.07,950.65,922.80,916.86,970.81,955.85,939.61,979.70,953.94,953.44,950.19,952.80,952.06,974.05,997.54,937.17,956.39,957.59,967.38,974.64,948.06,934.48,954.38,905.26,890.09,979.36,905.70,907.61,920.54,910.16,914.28,908.51,853.93,901.05,878.65,868.68,862.17,801.62,834.56,811.90,801.46,806.36,825.07,806.77,802.25,777.07,786.05,767.10,782.66,770.22,752.16,725.64,739.85,731.99,722.30,703.20,692.44,704.81,674.04,679.00,688.60,678.52,639.36,661.27,688.71,654.33,628.04,652.36,662.83,628.71,569.37,608.83,615.93,540.07,592.44,561.93,584.54,548.99,549.41,541.83,540.94,527.59,492.60,497.22,494.20,510.76,487.63,456.55,443.04,466.25,435.36,451.62,427.13,449.15,396.91,432.15,414.79,378.08,361.13,409.09,344.37,360.48
359.34,361.22,385.28,359.69,425.64,379.17,401.46,384.25,442.60,468.08,479.08,470.18,448.57,464.48,466.38,456.89,483.48,515.70,488.23,467.89,496.28,545.41,502.27,534.64,543.72,563.73,570.28,580.47,576.21,566.85,610.17,563.10,620.07,633.22,662.81,606.56,615.84,633.34,636.92,658.95,657.46,644.57,654.09,679.02,639.19,663.88,683.55,654.91,609.11,712.44,686.59,665.26,712.16,692.87,679.58,710.88,707.69,697.57,697.62,695.68,734.14,697.73,710.07,731.43,762.06,739.10,751.88,745.94,765.93,790.59,747.26,760.62,768.29,780.05,776.89,768.32,784.16,838.19,801.25,762.31,798.31,812.28,815.12,822.58,835.77,846.38,847.59,867.64,824.94,855.99,875.87,878.37,866.16,874.40,873.87,915.72,864.41,880.85,919.61,926.56,888.15,936.17,930.69,940.44,934.23,943.53,946.03,947.63,943.99,937.86,937.98,943.71,954.70,976.12,945.57,940.30,954.37,934.89,902.26,904.92,951.92,896.48,917.23,880.83,920.79,880.14,885.00,872.56,880.82,867.58,875.63,863.68,849.26,849.60,843.46,814.33,805.60,838.87,814.70,801.41,770.04,743.07,765.77,755.38,751.07,767.21,773.61,758.20,716.87,732.77,705.30,671.30,699.70,719.57,680.80,697.31,660.50,680.74,655.26,683.76,640.17,628.71,662.09,614.20,623.04,600.40,623.24,623.63,577.08,594.33,588.98,571.45,592.12,584.60,529.76,563.50,541.93,529.09,511.93,479.25,506.82,499.55,525.47,464.24,437.69,438.34,485.81,437.06,465.32,430.18,402.57,454.10,432.44,394.52,410.09,384.68,383.06,401.68,328.20,343.63
347.27,361.73,338.46,390.19,357.20,363.72,392.14,443.49,464.82,432.14,425.96,442.15,453.98,484.80,439.24,495.54,451.09,477.88,495.23,511.18,510.45,521.46,526.09,502.06,551.02,562.66,580.05,596.75,574.49,600.81,579.09,555.70,609.75,610.97,601.68,605.75,621.71,610.40,630.83,608.22,614.99,609.14,684.66,645.32,671.97,629.68,651.68,669.92,691.79,653.68,660.97,656.39,672.96,658.06,652.76,689.67,700.90,667.68,679.95,694.44,733.61,645.89,714.57,722.46,697.91,708.53,725.65,721.98,760.27,732.18,751.33,747.23,756.38,731.38,755.54,754.95,746.83,784.71,731.10,803.68,737.84,784.74,812.35,775.56,813.69,817.48,823.69,816.20,819.89,803.79,839.06,865.36,843.67,850.32,895.73,865.99,881.41,889.96,880.58,901.82,912.01,913.99,919.57,860.59,881.39,896.72,892.86,895.71,928.81,913.62,908.76,906.56,902.20,904.06,934.91,869.70,927.89,945.30,921.39,872.52,878.50,904.47,874.10,863.92,866.72,840.76,854.81,827.31,859.73,822.07,833.52,817.01,826.86,828.89,811.34,784.72,780.54,832.06,796.88,767.00,752.53,728.30,772.74,729.09,757.54,746.21,749.94,731.33,705.26,703.11,696.66,684.19,650.53,633.34,685.09,659.77,676.08,642.78,643.84,655.94,661.93,617.96,597.71,635.38,598.75,588.13,583.14,570.03,593.09,544.02,565.94,561.96,538.01,574.69,553.82,519.62,519.38,532.14,508.55,527.63,503.52,489.81,482.15,532.71,441.80,432.69,442.13,467.41,382.37,385.90,408.30,451.01,401.42,369.99,402.01,411.16,357.52,371.79,358.27,359.06
331.69,361.57,373.93,379.62,341.08,353.04,376.13,403.44,417.43,393.29,428.95,449.43,451.87,437.25,446.95,436.15,504.62,486.91,452.70,516.89,512.83,530.72,502.72,512.44,511.36,576.61,530.76,528.03,540.40,552.89,596.41,576.56,601.27,587.71,583.65,571.49,629.15,621.85,628.27,629.58,601.17,624.82,645.26,646.28,634.25,674.22,648.86,668.01,648.84,640.58,670.48,668.77,663.98,643.01,683.00,649.72,683.94,649.24,657.03,682.62,691.20,686.84,674.90,710.72,694.32,698.59,694.85,686.94,727.45,695.70,746.29,699.77,726.81,725.97,726.71,747.14,754.00,753.77,726.76,729.75,733.82,758.95,811.65,773.96,822.64,785.70,795.36,809.89,797.98,814.15,781.30,803.27,793.02,846.64,810.20,870.86,854.71,871.51,843.88,838.55,857.99,889.82,914.10,884.86,850.90,859.91,851.32,879.82,877.75,881.04,862.34,859.95,884.48,891.04,856.00,887.09,894.08,825.67,900.57,879.51,880.66,836.87,868.48,865.94,829.78,853.07,829.16,813.83,816.33,817.56,801.93,785.83,803.11,799.96,785.13,743.26,757.29,745.46,790.31,751.40,736.80,724.62,726.70,737.67,679.52,714.23,693.09,705.38,706.38,670.15,650.37,665.39,690.97,675.72,645.25,633.92,629.25,608.30,643.77,641.24,607.95,599.47,589.28,587.98,575.99,581.26,593.73,585.26,548.37,561.68,565.02,526.70,541.67,556.41,520.47,478.20,461.34,510.98,499.91,494.51,493.47,446.97,453.26,470.65,469.67,442.53,411.72,439.83,426.70,397.15,371.26,414.96,383.80,392.49,384.37,351.07,375.02,342.14,322.13,312.30
334.92,374.77,351.64,394.42,395.69,384.99,414.10,419.77,422.02,368.64,409.43,408.09,453.12,431.23,480.03,454.55,459.40,459.74,470.88,487.10,487.44,486.39,494.37,545.57,555.64,512.67,545.32,517.89,533.87,524.46,572.25,567.03,576.18,585.61,555.46,571.22,591.30,580.02,592.69,579.54,626.20,622.30,632.06,624.15,592.61,608.29,607.12,619.18,648.54,600.91,621.58,628.17,612.53,645.61,637.33,669.03,643.90,661.18,656.91,607.61,631.20,670.27,672.12,666.81,697.69,684.28,708.59,631.20,718.40,675.03,691.27,718.25,656.10,697.37,726.80,698.63,733.74,733.65,728.30,741.83,760.81,752.16,764.00,733.19,767.94,771.63,789.92,749.91,800.17,766.73,836.71,777.64,777.50,800.34,832.29,823.43,854.74,819.74,820.31,819.52,827.49,813.58,831.72,823.32,864.37,881.69,858.22,841.61,870.87,855.68,876.83,837.27,837.89,868.76,852.25,869.22,831.15,854.26,853.42,808.31,835.22,790.89,856.24,795.86,813.55,812.12,787.65,838.37,781.88,784.50,770.16,763.94,769.58,779.61,762.49,737.81,746.52,712.96,757.62,717.49,712.24,676.06,698.57,736.11,708.49,712.27,686.29,625.47,673.22,669.83,677.74,653.15,632.53,640.09,629.35,640.81,622.54,598.83,624.12,592.15,594.75,585.90,594.02,555.92,578.03,593.00,567.27,545.93,545.85,552.91,551.98,564.58,495.67,527.07,519.08,507.55,509.45,491.15,469.11,486.66,488.62,467.89,483.18,450.35,457.38,409.57,479.06,422.64,410.37,407.75,387.01,375.52,392.60,386.96,382.05,369.80,361.74,332.28,339.55,345.52
318.28,342.57,341.72,349.27,363.99,377.26,389.42,422.61,407.88,368.62,384.14,407.87,405.59,436.08,445.55,433.22,473.88,486.26,427.94,442.49,499.80,501.92,501.11,497.69,501.70,520.63,519.43,547.92,513.85,533.39,556.24,546.97,562.24,566.88,549.99,542.69,552.61,550.20,538.91,601.87,546.17,624.83,580.62,589.05,567.63,608.81,598.98,608.39,594.29,622.43,599.03,619.71,629.94,652.24,641.80,629.93,630.40,639.25,650.74,622.97,658.40,624.12,654.57,658.92,637.39,622.79,651.26,606.99,659.17,641.05,731.69,694.15,678.12,707.18,698.63,665.42,680.49,718.04,682.85,714.71,725.17,711.46,724.83,743.63,747.96,746.60,742.79,760.23,713.50,788.88,762.12,755.41,787.36,791.95,766.01,791.76,795.83,799.00,836.28,807.38,808.90,801.31,801.51,828.62,813.79,821.48,830.88,829.48,831.80,832.22,842.19,882.21,853.27,820.33,850.39,803.13,810.64,833.49,829.92,825.14,797.71,793.95,804.06,791.96,810.10,781.89,776.22,744.57,789.17,772.54,714.69,763.53,740.75,758.36,734.76,714.76,759.39,750.21,709.01,714.14,691.49,660.55,715.07,666.84,702.38,685.01,671.00,658.67,667.79,629.47,669.11,639.67,661.11,623.20,622.95,619.84,620.56,639.74,589.24,589.92,586.56,535.08,564.72,560.42,617.35,564.09,563.09,518.10,540.43,554.56,580.28,510.32,481.70,496.46,490.43,484.45,511.63,494.06,458.30,502.81,505.92,427.47,478.60,445.06,423.01,406.09,419.44,411.34,417.97,451.17,391.30,366.51,381.22,401.84,369.21,380.37,363.93,354.94,378.68,320.80
302.25,312.34,344.89,346.52,367.13,358.88,363.95,381.89,416.65,366.86,379.04,405.55,452.61,397.70,426.03,415.70,448.15,405.74,433.05,485.98,467.12,458.44,478.72,484.54,503.05,456.21,482.75,490.00,527.15,519.75,553.85,546.64,527.99,538.62,570.04,577.22,550.88,537.18,518.80,522.58,577.69,580.79,561.61,604.39,577.33,572.70,610.77,610.89,591.77,605.74,610.78,643.85,600.11,581.46,619.87,610.87,614.12,613.50,584.55,623.89,613.78,617.14,617.77,627.42,635.97,632.82,659.25,654.13,640.52,624.38,659.93,645.40,651.81,632.52,670.99,718.55,660.69,687.54,704.42,673.60,640.24,707.47,700.06,709.72,709.70,736.97,717.05,767.67,743.49,755.02,740.15,751.41,716.50,743.75,781.72,763.55,746.93,760.10,764.06,781.01,768.72,817.20,795.93,766.56,827.56,797.93,810.62,807.92,811.03,796.33,809.95,800.09,809.67,797.69,794.20,768.99,795.99,798.11,827.79,797.27,769.75,760.24,781.89,757.41,756.48,748.22,751.75,768.02,708.33,768.71,733.32,719.21,744.06,716.53,694.03,678.81,717.41,712.95,683.76,712.72,681.30,701.47,650.12,642.06,647.81,644.57,670.10,647.50,621.05,631.09,616.98,604.17,613.39,605.93,589.21,583.79,610.42,597.40,602.62,572.87,551.59,556.64,583.42,525.60,581.20,524.76,557.18,515.76,518.80,484.05,556.71,525.51,521.02,492.76,478.22,506.53,461.04,475.80,448.12,469.55,422.61,425.16,431.36,454.58,425.35,449.29,453.24,410.63,380.77,423.17,366.51,372.75,350.25,396.98,382.59,396.95,349.20,334.99,334.43,311.75
345.60,391.79,317.02,350.59,342.87,362.05,381.63,344.78,365.24,406.01,399.21,402.63,413.26,422.14,439.98,438.67,429.26,443.93,442.01,434.83,454.99,459.91,434.27,489.64,498.82,496.46,508.79,492.95,491.41,525.75,490.52,494.61,530.07,534.00,548.51,499.87,536.14,519.36,562.80,575.94,562.80,544.85,544.20,553.98,548.31,564.74,555.60,545.58,583.32,587.27,614.43,574.05,547.11,603.38,607.76,614.14,622.81,625.17,578.02,630.63,595.25,619.97,611.43,589.10,634.15,604.30,653.18,603.43,601.41,611.18,657.40,599.36,652.32,674.20,637.81,637.13,650.54,630.59,710.24,675.04,641.74,654.64,679.11,654.47,655.20,696.16,715.45,718.72,704.32,705.11,716.70,740.53,700.50,714.93,727.66,734.95,743.13,747.95,765.94,720.99,727.74,749.72,783.26,755.59,770.14,775.51,780.90,807.15,790.66,797.26,774.94,806.74,778.12,736.63,823.60,773.69,781.35,747.04,809.69,746.91,751.81,725.39,759.48,742.53,713.04,738.11,736.74,725.10,688.71,725.90,689.57,727.47,693.27,717.57,693.89,689.49,708.27,660.99,649.95,677.56,634.76,639.70,618.77,668.10,619.76,621.52,603.64,616.61,616.38,630.72,582.76,592.21,627.75,615.20,575.93,583.62,619.10,551.00,531.59,554.43,558.60,539.33,570.00,549.73,528.45,524.75,515.55,541.98,510.80,491.20,529.06,499.00,471.98,528.03,500.52,483.71,472.97,465.96,459.86,454.65,442.52,446.38,430.34,441.03,430.08,410.49,416.66,423.12,360.96,411.45,369.12,378.22,324.53,386.14,353.72,352.22,357.72,310.18,344.53,349.96
314.44,310.08,325.79,330.47,354.16,371.09,344.76,364.57,353.52,382.10,389.82,384.08,404.53,400.88,406.46,396.33,423.81,415.16,450.35,422.24,450.51,445.84,462.17,461.35,451.70,495.35,461.00,496.73,454.90,487.94,529.00,497.46,509.30,543.68,512.87,524.86,535.58,499.56,520.96,536.64,505.36,567.78,558.48,558.35,575.32,566.00,549.45,523.81,545.15,547.96,575.54,566.87,535.99,586.59,597.83,602.69,552.50,583.45,558.82,619.69,583.50,577.51,575.92,595.84,601.70,560.75,624.07,608.08,629.08,638.29,604.99,627.16,601.69,607.18,651.46,608.85,631.34,613.18,622.29,629.50,672.87,658.66,669.79,621.48,663.06,659.54,681.91,725.11,634.10,694.83,735.85,686.42,704.41,719.65,667.59,720.49,703.59,764.54,723.35,716.98,751.56,747.57,758.62,781.51,733.88,781.93,786.72,735.08,737.94,752.88,748.15,786.17,734.20,755.51,734.09,750.01,788.79,780.21,748.80,751.01,744.76,725.90,766.71,750.95,725.21,711.97,708.88,714.15,702.00,720.70,702.60,668.98,660.09,697.76,649.70,660.72,653.75,632.63,658.47,644.68,629.31,678.72,583.38,609.76,610.56,590.04,657.52,652.51,589.12,623.47,605.34,621.89,582.01,588.20,603.05,595.44,568.94,542.52,541.57,515.31,563.48,547.41,544.36,533.45,506.44,530.87,532.00,497.76,509.74,492.48,496.21,472.84,485.16,517.98,470.25,461.46,457.45,460.68,494.94,481.76,445.28,429.73,401.75,413.08,386.09,434.62,440.72,400.65,409.94,374.55,351.58,385.50,386.04,406.42,407.56,354.66,372.40,354.39,342.06,335.19
301.93,309.58,351.53,329.48,366.81,320.78,288.84,342.97,342.20,335.70,398.19,352.01,396.89,431.94,375.02,399.67,437.53,408.27,429.23,441.26,437.74,430.97,429.88,429.03,468.17,448.25,490.37,503.14,452.98,495.50,526.39,472.44,517.74,509.00,520.86,490.27,547.10,499.06,528.58,517.67,532.71,505.22,503.12,536.07,525.53,527.28,548.54,509.98,566.16,546.47,561.33,558.55,561.53,527.74,576.80,560.74,547.55,556.31,567.84,566.00,576.17,599.17,547.30,585.04,569.97,597.14,609.07,582.85,593.84,608.36,606.75,614.80,586.73,585.52,576.45,598.73,604.56,607.13,623.75,628.30,620.79,633.32,647.32,619.31,658.53,632.29,678.02,657.31,660.04,627.74,681.45,674.91,681.14,680.37,699.20,707.53,704.89,725.56,688.64,694.77,718.13,726.34,726.27,692.74,696.69,718.99,688.51,730.79,725.02,708.83,716.33,729.47,696.96,713.98,719.67,717.49,716.31,746.84,736.26,701.78,690.98,700.29,729.70,658.99,699.40,687.57,713.54,704.90,651.49,700.25,625.02,679.24,676.29,691.15,657.17,634.49,622.76,667.29,667.20,619.48,624.11,646.19,629.61,605.83,589.76,583.55,614.92,584.04,578.81,594.79,579.80,581.66,563.10,558.00,546.38,571.02,554.33,554.28,523.81,553.90,541.99,546.11,534.14,528.66,482.20,537.00,483.43,526.13,499.43,464.21,490.02,457.08,504.53,467.28,451.94,481.08,462.06,468.29,450.52,470.79,434.42,405.67,409.98,435.20,407.91,441.25,386.64,424.84,390.20,419.36,397.62,385.64,389.32,394.78,363.43,321.09,376.79,341.52,392.30,323.19
291.06,320.13,327.04,326.83,313.74,308.27,324.46,314.16,392.22,336.88,357.86,383.91,376.42,370.68,385.65,382.49,395.52,414.28,391.49,439.50,424.89,417.21,427.88,462.74,460.84,454.21,442.22,470.27,463.72,502.75,471.34,509.89,484.08,463.27,553.62,462.29,455.09,456.38,555.79,546.46,509.71,518.24,517.17,479.22,546.18,545.82,496.80,530.00,524.00,523.14,515.61,528.72,522.15,555.65,535.46,523.79,538.75,538.05,538.83,557.69,540.31,536.15,522.16,551.05,578.06,552.70,547.26,544.38,527.39,587.87,576.63,585.06,577.56,559.44,572.37,572.01,577.13,580.85,614.90,637.11,583.24,601.42,613.38,593.77,618.86,629.33,625.30,643.99,636.08,583.38,626.10,678.53,664.80,601.81,632.97,681.82,659.94,621.32,700.27,697.08,669.30,713.84,675.89,681.77,686.74,660.46,708.24,711.67,693.06,716.99,671.34,716.85,709.27,688.26,709.34,682.09,720.19,706.69,701.21,682.21,704.22,709.81,714.67,668.21,691.89,699.66,662.97,691.88,662.78,634.95,636.77,617.68,641.29,634.35,636.78,655.69,623.58,614.02,610.84,573.26,619.53,598.41,598.65,588.68,590.94,557.90,579.91,563.69,572.35,547.28,573.12,559.97,529.66,570.56,537.42,536.63,555.87,557.48,522.80,530.45,537.95,545.65,518.21,521.89,490.17,474.15,511.41,480.04,473.51,500.59,480.53,483.68,449.06,452.04,498.35,447.98,452.42,456.52,425.59,469.20,437.38,427.54,448.59,440.38,456.34,403.05,450.41,414.16,429.70,410.21,372.22,362.92,338.00,328.34,350.74,382.74,341.83,332.64,354.53,317.67
329.31,293.61,323.81,307.54,318.37,346.74,335.08,366.63,327.32,323.19,320.32,386.49,385.45,368.06,385.22,406.44,386.96,361.19,366.97,385.45,414.70,399.03,443.63,402.45,418.90,401.06,433.18,446.68,472.41,457.44,473.90,483.09,474.59,452.43,481.94,506.94,474.09,494.54,496.96,481.80,510.59,486.70,505.87,494.33,502.19,522.08,466.46,519.65,523.27,499.37,511.92,494.64,499.76,522.69,571.27,533.53,504.76,538.72,536.31,491.67,521.44,526.50,533.36,532.09,537.47,517.70,531.88,535.15,565.87,531.05,542.56,542.92,584.51,568.93,539.97,569.75,544.87,573.76,599.45,536.72,559.54,586.79,579.83,596.21,594.53,566.93,617.39,582.70,617.98,609.26,670.84,624.84,638.66,647.04,646.93,643.74,628.43,649.82,618.37,668.87,720.75,668.86,674.85,639.50,656.41,692.54,647.30,662.99,689.89,695.39,677.37,682.04,681.70,654.02,676.31,681.40,673.28,634.75,701.91,647.01,667.75,669.95,651.42,662.20,638.43,693.33,641.49,660.87,617.11,649.38,616.51,598.84,601.20,601.31,616.24,667.27,660.20,594.81,616.21,567.74,546.57,585.14,591.38,592.08,594.02,561.88,566.04,577.18,580.82,535.05,553.69,558.79,545.09,526.08,534.98,541.92,512.53,500.23,561.79,520.77,532.19,514.01,527.19,504.10,510.57,472.90,456.02,477.97,455.11,437.37,481.76,436.30,486.58,492.26,430.35,460.69,487.72,436.70,453.87,484.96,398.94,407.41,434.33,461.69,399.15,457.16,406.10,359.08,425.15,378.93,391.99,344.61,357.47,337.30,329.85,358.51,362.50,334.82,311.59,309.37
293.72,294.64,306.32,335.86,322.31,325.09,370.35,323.52,382.69,369.46,340.93,368.84,354.23,335.53,369.75,346.13,385.62,402.36,387.31,401.47,406.23,423.81,413.57,410.24,437.14,428.83,387.32,427.26,428.03,445.30,446.98,410.87,423.61,437.81,461.44,484.77,434.23,455.74,470.96,455.92,478.79,492.21,466.53,490.35,483.55,464.79,486.79,500.49,521.30,527.50,484.79,485.06,499.86,489.59,526.06,505.16,505.59,518.69,510.38,514.67,515.25,508.55,494.92,549.73,498.10,551.06,526.65,509.74,534.94,541.75,562.71,504.49,530.59,563.66,553.92,551.72,574.73,544.86,503.93,548.14,599.40,568.96,550.07,597.64,591.97,582.21,595.24,567.49,584.93,595.22,622.83,594.18,608.90,642.43,668.20,604.30,628.38,599.14,632.55,630.40,664.38,618.83,618.79,677.84,636.94,655.44,659.01,638.67,639.71,678.68,670.09,656.33,653.70,662.25,662.76,679.24,652.22,659.85,663.44,661.64,673.53,641.68,627.81,628.97,645.78,627.49,671.94,622.88,599.86,621.65,642.15,591.17,586.66,595.87,582.72,564.66,556.88,588.39,594.12,561.89,570.65,571.94,542.36,577.92,561.30,563.92,563.46,594.84,522.35,521.54,569.65,545.67,530.67,516.42,518.06,515.17,486.26,532.36,469.43,489.39,494.46,542.67,494.46,499.46,472.20,503.70,541.90,489.18,469.08,431.53,482.37,445.04,445.85,475.74,443.71,447.31,460.12,426.88,411.02,441.82,443.28,412.24,406.78,392.79,424.46,443.91,419.44,394.21,405.53,369.68,388.75,354.70,368.93,387.82,377.44,367.44,359.22,330.98,343.33,350.90
275.20,281.90,282.51,292.14,288.27,310.10,309.06,291.80,379.09,312.06,335.80,345.34,338.99,353.39,344.23,380.49,370.76,390.74,410.84,380.79,406.76,426.77,398.22,419.04,400.33,437.86,408.08,436.17,445.91,406.20,420.08,422.77,461.87,420.00,453.11,464.09,455.78,480.58,419.17,472.26,458.79,434.52,445.10,500.00,483.22,488.39,493.22,448.50,482.08,500.58,471.95,508.59,470.38,486.39,493.07,501.43,481.79,509.01,498.55,458.47,529.27,474.72,533.66,493.59,491.40,507.89,487.66,465.74,503.22,514.97,540.41,488.14,526.03,514.94,520.42,542.07,515.42,532.16,553.91,556.14,514.70,530.52,543.70,566.74,549.42,560.16,587.63,560.02,600.45,543.09,571.55,556.29,590.07,606.83,592.59,590.22,576.29,640.74,610.13,604.83,648.22,612.81,604.29,610.71,609.92,607.64,616.71,680.21,609.96,603.86,639.73,632.81,647.40,622.70,615.71,665.58,598.62,636.56,641.40,642.04,617.33,596.02,648.36,606.68,643.24,616.91,596.66,610.88,622.60,597.72,577.76,553.15,576.76,597.72,557.68,587.82,571.08,581.77,516.45,531.23,546.83,589.89,534.01,543.14,585.32,547.56,552.91,519.65,552.91,552.82,533.14,518.33,528.21,481.52,532.83,491.11,499.57,528.55,521.20,463.87,474.38,503.14,452.53,512.67,483.56,506.35,460.03,458.60,489.15,459.22,436.96,469.57,423.00,480.12,451.33,426.15,463.08,459.59,432.49,473.94,469.42,426.71,437.36,437.96,384.75,408.79,384.95,377.61,391.91,388.78,347.91,382.27,365.58,393.72,384.13,338.83,377.24,356.71,336.60,325.67
250.88,255.19,248.73,291.39,255.46,285.00,321.10,343.44,296.16,336.84,323.92,325.20,343.96,333.05,349.66,357.89,384.72,394.00,359.34,370.66,396.80,381.64,403.98,412.05,418.59,404.04,382.97,406.71,403.62,432.88,451.29,455.16,444.97,411.61,461.28,444.53,422.15,458.41,439.15,406.86,428.41,448.75,449.90,432.52,470.57,467.57,430.00,512.85,437.27,453.72,471.65,456.25,495.59,464.13,450.31,482.13,412.94,482.70,498.93,428.14,467.36,443.74,478.21,524.16,485.30,477.85,427.34,463.42,484.70,491.17,498.23,508.92,477.78,499.16,491.04,484.95,489.17,520.45,461.51,479.00,582.87,509.78,556.10,529.18,523.09,551.39,543.85,542.69,549.46,562.31,544.75,552.94,547.06,546.43,611.48,560.15,601.93,578.39,599.71,592.09,559.34,598.58,612.74,583.91,651.58,623.28,625.08,628.56,564.42,625.99,657.94,627.84,607.35,589.98,587.46,584.20,601.71,587.00,603.72,609.02,568.51,585.38,586.69,583.55,593.32,592.60,578.63,570.58,580.44,606.45,545.19,593.59,534.90,571.41,581.76,530.90,560.99,529.69,570.68,511.98,522.87,540.13,548.57,533.08,538.06,514.16,500.37,548.57,526.38,503.83,477.73,532.52,530.63,498.31,486.78,492.15,490.48,507.45,466.66,475.09,480.43,486.59,496.04,482.20,508.25,450.56,496.77,445.55,453.76,466.39,479.13,444.56,457.07,439.64,396.69,438.42,410.87,457.57,454.07,408.07,401.22,404.57,423.87,419.94,473.30,394.83,398.61,431.14,393.89,362.00,386.14,388.88,363.37,381.49,375.04,347.02,382.47,330.96,350.54,324.89
233.73,280.27,317.21,283.04,259.73,299.50,284.11,326.95,306.65,281.08,331.95,331.15,326.10,316.38,377.93,338.01,369.82,347.34,374.86,366.86,370.79,358.04,389.35,411.00,366.21,374.13,453.42,378.13,390.57,432.72,436.57,362.85,429.72,413.37,417.02,445.92,418.14,417.22,423.27,424.83,440.77,462.18,446.05,438.92,451.69,457.85,455.22,431.64,454.73,405.03,479.24,480.26,468.47,476.61,451.20,438.65,429.56,475.78,441.60,450.17,463.19,459.07,466.28,426.06,458.87,481.42,457.79,450.78,488.83,463.07,477.20,471.38,477.79,510.74,494.07,460.82,480.58,482.68,498.29,515.31,501.07,503.90,462.74,537.48,511.36,523.69,527.51,510.91,525.36,518.67,565.84,497.65,526.99,543.48,583.67,571.58,528.26,562.19,582.25,615.53,567.18,553.08,585.81,580.86,593.12,599.56,593.78,599.33,622.59,584.91,566.82,597.90,566.03,569.00,574.51,565.20,612.61,589.00,600.72,595.13,578.87,600.24,569.17,573.09,559.78,599.31,566.41,577.66,551.15,576.72,572.19,521.14,550.62,549.76,538.30,568.87,513.73,526.03,514.96,549.54,505.41,486.42,528.83,514.61,535.43,528.17,508.41,477.79,480.13,466.11,496.33,483.48,490.63,495.34,527.47,498.77,486.24,451.19,480.67,495.44,483.26,452.10,463.12,469.68,457.58,450.88,417.72,442.69,460.41,470.16,451.39,468.21,442.53,423.56,428.57,444.89,426.34,415.57,393.90,403.75,410.15,402.87,391.34,438.23,415.27,443.21,363.29,397.62,378.56,383.47,415.86,339.76,358.74,350.81,349.91,314.58,377.93,374.11,354.60,311.50
266.89,283.98,279.74,276.29,310.76,273.62,289.65,310.72,309.71,319.64,324.15,328.96,316.09,314.28,335.75,367.93,341.82,358.83,353.52,396.28,357.09,376.03,353.62,349.50,375.57,403.01,395.62,344.66,404.37,362.27,412.77,409.80,398.73,418.97,401.71,412.42,382.99,408.83,434.51,391.38,436.23,381.22,399.45,418.49,429.30,416.13,416.86,452.21,454.97,423.77,425.39,428.50,479.52,436.41,468.37,452.46,436.59,426.61,456.04,425.65,434.60,456.52,439.60,437.64,440.59,434.31,458.43,451.65,425.41,444.50,448.75,450.57,472.14,448.35,518.84,494.98,497.54,452.03,435.01,471.89,487.72,481.90,477.95,457.23,482.21,494.46,493.16,496.84,494.73,547.64,532.58,541.37,531.53,503.14,548.32,564.13,570.57,556.56,547.37,550.43,563.78,523.34,571.49,551.36,607.39,559.08,570.64,571.05,555.47,579.35,577.69,591.69,585.77,574.98,554.49,554.46,602.55,570.08,608.59,549.21,607.77,543.18,551.26,566.71,575.52,566.72,512.38,536.58,522.44,514.98,539.50,494.77,554.16,546.20,560.84,504.29,503.44,541.06,539.81,541.52,534.96,513.64,497.48,518.87,492.87,501.40,489.31,499.97,517.22,483.17,477.96,483.72,460.16,494.94,481.92,476.84,482.08,443.99,499.45,458.99,459.83,482.54,475.35,500.96,439.50,437.83,430.40,454.66,444.20,433.27,443.36,421.46,470.38,422.77,422.55,383.37,395.26,413.39,415.95,433.27,385.71,421.33,421.35,418.91,422.51,374.91,405.24,425.91,414.74,420.63,383.59,362.85,319.93,341.47,351.55,350.83,337.52,355.72,348.34,340.74
270.80,250.84,287.27,246.37,269.46,286.95,247.22,280.50,309.75,291.86,268.79,292.27,287.82,329.29,326.29,297.20,300.08,322.67,342.02,332.09,356.57,359.81,367.97,332.78,359.13,389.65,358.08,358.50,368.14,370.66,386.25,374.96,348.84,415.47,404.29,399.43,396.73,394.21,386.59,366.86,438.67,408.15,377.02,390.13,418.06,418.89,399.40,393.88,405.00,378.81,408.79,409.86,450.51,411.76,426.61,454.28,401.74,411.37,413.87,391.99,421.11,450.52,445.14,452.91,417.70,408.99,477.99,438.55,403.51,488.58,437.32,382.03,472.06,398.90,453.13,466.62,465.93,486.10,478.13,497.85,461.92,458.69,463.31,501.11,464.33,497.62,467.11,471.15,515.39,504.19,456.02,485.88,455.26,502.85,508.51,508.04,545.09,532.56,576.82,541.24,544.51,541.62,533.34,528.06,538.48,541.30,544.87,560.91,555.39,540.00,536.28,555.99,533.19,543.17,540.82,599.48,524.77,533.47,537.09,537.84,565.38,538.64,515.42,568.57,543.14,544.09,546.40,506.38,528.44,542.51,510.75,527.13,529.29,486.64,492.62,465.01,512.70,543.36,489.35,496.92,518.66,501.38,474.31,522.09,493.34,482.64,482.24,495.03,468.98,510.77,502.63,475.78,475.04,455.10,457.51,445.80,462.68,466.27,431.48,475.30,442.34,466.20,472.29,480.43,474.34,483.60,464.79,449.80,434.89,439.80,472.56,433.72,435.21,462.40,425.70,411.88,447.77,405.80,427.59,421.17,419.91,362.11,422.95,402.89,413.07,407.35,400.15,382.31,378.88,381.78,382.50,366.71,390.10,360.68,343.56,370.92,392.44,327.21,343.75,363.17
260.27,266.24,259.35,210.49,273.69,280.86,300.73,267.97,321.39,286.21,287.40,287.21,327.07,288.67,327.59,303.10,322.58,297.09,347.33,332.56,350.55,339.57,357.34,349.39,368.55,367.72,364.16,345.31,357.53,353.68,400.42,390.06,377.69,368.06,365.76,386.13,422.56,387.72,413.43,396.58,403.90,384.60,391.56,380.17,404.07,394.23,407.33,381.40,411.12,406.23,406.38,412.19,400.37,481.95,415.87,409.27,422.68,398.10,398.14,425.97,428.52,435.40,383.94,410.86,421.01,429.93,427.25,401.00,429.73,427.38,428.97,402.44,407.57,464.53,450.18,431.49,434.27,482.21,441.36,440.94,430.36,444.63,418.82,466.17,484.31,487.99,452.05,423.78,480.08,503.31,448.51,476.77,495.02,474.64,460.44,483.59,490.46,467.39,529.70,542.36,514.73,531.42,489.77,518.84,512.22,533.94,473.45,522.80,542.69,535.89,547.56,520.48,476.29,554.81,547.87,563.70,533.24,539.30,576.59,491.84,536.43,550.42,528.70,524.02,491.15,548.20,538.17,540.31,512.03,503.81,507.81,539.63,498.12,530.66,495.77,479.28,452.63,503.43,505.12,464.61,515.07,455.86,495.67,494.72,499.16,436.46,495.45,469.50,463.92,485.60,486.73,426.19,438.65,486.94,470.98,463.66,438.86,465.90,480.05,500.56,445.64,468.76,486.78,419.14,482.49,448.87,444.65,430.56,432.30,422.80,416.69,442.73,453.90,408.52,413.32,430.03,400.20,424.87,412.02,381.98,421.42,397.93,426.72,399.29,385.87,396.25,418.48,427.12,398.70,371.54,380.38,374.08,369.30,363.39,345.28,380.14,373.82,352.98,373.54,355.99
220.33,240.33,281.77,249.67,247.71,280.69,265.26,286.67,279.28,268.56,275.08,259.60,275.53,314.45,330.18,297.95,286.68,340.87,345.31,340.17,300.35,343.22,347.41,357.74,345.99,331.10,341.03,375.57,362.41,331.34,394.19,385.62,398.09,389.74,350.58,377.74,385.08,347.89,352.98,392.85,395.88,428.14,376.83,349.54,381.26,402.15,378.93,389.11,375.03,412.48,404.21,373.58,380.17,377.62,354.61,377.15,357.51,412.24,414.45,388.87,399.63,417.69,412.74,438.03,404.06,428.95,402.92,399.84,417.13,416.03,394.38,391.74,411.52,374.16,407.88,396.58,407.04,405.46,438.99,435.29,430.27,424.50,455.94,456.43,439.47,472.13,444.66,456.02,443.96,451.13,450.02,479.87,477.19,452.12,487.97,515.89,470.14,472.21,489.82,520.19,486.69,534.96,479.48,506.70,471.04,488.27,504.45,515.63,536.32,498.59,521.83,487.26,534.64,540.83,535.35,535.08,512.09,518.83,510.54,510.59,495.49,514.70,516.00,525.80,512.29,520.31,485.97,527.43,492.18,454.03,485.19,502.47,490.53,448.00,489.11,485.32,461.38,490.15,474.28,436.07,487.19,475.03,500.10,450.89,461.94,486.39,445.28,482.78,481.92,465.72,454.85,443.95,441.24,460.67,395.72,440.96,437.04,430.01,452.32,418.03,470.28,463.27,470.94,431.92,445.29,456.22,435.71,425.51,437.70,429.59,410.60,382.65,409.96,379.34,407.14,450.85,383.34,427.05,440.19,381.86,446.69,406.67,432.67,408.14,390.63,338.73,371.53,404.28,418.20,356.05,379.55,368.34,382.06,371.83,358.92,375.35,344.88,355.01,366.19,332.21
229.30,229.90,254.66,257.15,244.30,265.96,207.34,284.69,290.26,266.52,266.79,283.94,271.02,278.19,303.42,317.36,311.37,366.48,337.39,330.69,333.45,324.57,336.21,333.24,353.38,329.74,331.53,364.48,334.35,327.17,333.52,365.75,406.39,337.27,369.88,361.90,383.13,374.92,387.53,370.99,349.78,354.11,373.09,379.24,363.19,412.08,391.43,331.68,371.61,354.12,413.45,331.51,384.81,379.43,393.74,384.42,419.86,397.36,342.78,408.20,384.79,409.51,375.77,361.65,358.74,405.94,401.69,375.05,334.73,411.48,350.20,436.03,365.36,396.40,402.70,407.50,408.94,407.44,398.65,405.49,399.68,417.90,383.48,427.94,422.83,444.88,425.30,446.80,449.22,438.86,452.17,421.74,478.89,444.58,455.31,441.15,450.10,501.49,474.43,468.67,471.35,480.09,496.98,488.73,491.29,470.46,484.80,495.35,492.93,486.36,485.45,505.01,506.00,516.87,501.08,455.53,543.92,496.10,487.42,493.64,485.92,476.36,503.80,487.19,486.93,437.13,481.05,462.38,471.75,485.17,466.39,467.36,477.01,463.16,450.42,435.35,474.80,456.07,431.46,488.10,468.42,436.42,444.67,478.33,452.59,446.49,468.67,449.16,476.01,442.12,437.95,448.72,466.73,451.51,447.69,428.58,424.76,462.27,463.49,461.94,456.07,448.23,446.95,439.99,447.50,434.32,445.18,451.13,406.35,452.09,427.59,456.42,451.10,403.42,422.32,383.17,410.85,423.69,431.43,413.69,418.88,393.61,404.81,390.83,405.63,425.02,393.25,364.03,392.35,399.42,363.74,403.65,363.51,356.77,332.82,370.19,397.43,364.68,338.82,359.85
246.35,257.95,214.42,274.54,252.08,287.17,259.48,272.12,245.78,288.57,251.41,282.33,272.29,283.01,310.28,285.21,318.07,291.39,305.63,349.40,312.14,311.39,318.81,312.42,301.90,365.91,319.29,299.55,329.37,341.98,332.95,338.28,338.01,351.73,361.42,342.91,400.16,370.69,351.17,326.21,356.08,371.19,372.38,319.85,360.08,348.96,389.25,362.45,314.90,368.52,322.68,371.17,414.37,390.28,368.68,350.74,389.85,377.53,359.95,355.01,348.20,374.42,359.24,371.65,387.64,361.13,383.83,396.44,381.07,388.44,383.89,377.68,395.74,412.95,399.76,380.82,383.50,386.53,410.50,383.57,376.27,408.91,402.85,435.03,363.34,415.80,406.79,434.36,415.90,413.35,446.98,457.24,433.09,436.84,467.14,468.17,468.82,443.25,441.15,489.94,472.17,447.78,462.96,469.10,467.43,465.66,497.90,485.44,521.32,503.15,481.16,507.56,486.86,528.56,474.10,489.48,468.24,472.30,472.59,503.50,482.15,427.89,477.90,455.41,464.84,495.35,444.08,444.95,434.82,458.77,431.20,431.33,457.31,466.66,440.65,464.62,458.17,465.35,432.38,491.57,427.85,436.93,458.60,449.57,463.13,439.03,419.77,412.95,478.22,435.80,437.78,476.46,429.93,439.61,417.85,411.64,475.08,474.75,456.48,455.18,449.87,419.33,439.22,422.59,380.08,453.42,441.24,402.85,420.97,448.14,428.57,390.72,399.12,459.13,421.82,440.10,454.03,406.32,420.69,372.36,397.51,419.02,401.42,411.96,419.08,409.15,401.92,396.39,378.38,368.34,410.91,396.53,361.70,375.48,342.98,357.80,374.53,365.40,358.81,335.05
202.51,247.47,266.55,247.86,237.57,269.63,232.37,274.32,245.32,250.24,258.43,266.89,290.98,250.29,267.92,287.76,298.20,256.34,277.94,261.99,286.11,294.39,316.13,263.10,324.73,304.12,310.03,338.71,348.51,310.73,312.71,320.87,316.52,302.95,332.72,321.74,338.38,371.98,336.99,325.18,335.96,344.99,340.04,332.95,311.85,358.36,328.47,376.16,340.07,337.60,338.95,351.79,331.85,336.05,362.36,329.92,361.60,367.57,364.78,356.54,316.27,328.66,326.36,346.55,355.48,331.84,353.11,371.25,338.69,343.51,384.82,344.10,371.06,390.69,344.10,347.54,367.12,375.31,363.46,418.18,392.10,367.93,359.50,388.46,401.48,432.59,400.44,397.28,385.86,416.09,432.33,379.57,420.12,401.52,398.04,462.28,449.29,422.48,434.35,434.10,420.68,434.99,463.96,439.28,462.03,443.57,432.86,482.06,417.00,496.56,481.88,466.45,454.56,456.62,468.34,468.13,445.22,465.57,469.05,457.38,507.57,459.37,425.94,440.05,473.30,443.68,437.09,483.66,457.90,441.21,396.57,463.06,449.68,474.11,424.96,438.17,450.42,468.43,447.40,427.04,466.17,433.04,442.02,452.63,468.13,443.55,487.28,433.15,440.28,421.54,439.91,438.98,453.56,441.16,421.38,436.71,417.80,441.90,419.38,402.25,407.22,405.92,418.42,411.55,427.53,419.56,437.09,433.72,418.83,449.32,405.04,442.71,424.64,412.48,441.71,428.93,394.84,422.11,420.47,431.63,421.37,420.87,396.88,399.38,396.30,367.03,422.30,371.65,396.77,382.03,381.05,396.43,364.24,385.86,382.83,354.69,385.03,390.68,400.26,350.88
222.01,227.30,239.61,265.28,244.03,248.52,220.26,286.99,240.33,200.42,211.81,267.49,239.12,269.18,241.67,281.05,289.54,285.00,270.70,305.26,282.67,289.77,286.12,293.65,339.02,303.99,281.08,289.58,305.43,297.14,334.01,288.55,316.28,340.55,309.30,332.16,323.94,325.39,337.44,291.12,353.36,292.28,353.77,340.49,341.97,365.42,357.36,350.48,328.76,327.84,352.26,344.83,342.12,335.27,328.55,309.20,350.18,334.00,333.05,302.11,340.64,311.99,331.10,356.24,342.32,339.70,328.12,332.64,376.34,361.37,337.80,346.31,354.87,360.30,352.81,319.76,356.55,357.46,402.71,417.78,379.28,355.51,385.35,340.62,366.84,347.96,394.57,362.47,384.12,392.19,395.74,390.11,409.55,380.97,444.04,391.73,416.30,431.03,435.12,439.82,395.18,411.29,434.82,444.05,461.74,428.33,422.35,431.18,488.80,474.94,442.67,472.72,436.35,467.49,421.26,456.23,469.60,442.64,461.26,437.44,454.30,438.04,463.40,420.99,425.15,470.68,394.43,429.81,438.77,447.64,429.97,415.97,461.97,457.49,427.85,398.66,439.68,436.32,418.52,391.99,424.94,445.05,447.47,427.70,415.64,442.38,404.58,399.91,424.96,457.44,458.00,399.82,417.30,474.63,412.10,458.19,445.24,449.47,416.66,417.15,407.15,441.19,392.30,421.54,457.23,436.11,443.89,390.52,403.01,445.99,424.16,400.11,432.60,408.49,468.90,429.03,397.40,432.17,445.45,411.53,394.68,409.22,394.26,399.42,374.78,417.92,375.19,407.99,387.29,395.26,378.65,389.30,391.16,372.53,341.89,380.06,377.89,338.07,343.67,352.82
